ply
format ascii 1.0
comment GEO1015 hw04
element vertex 1819
property double x
property double y
property double z
property int segment_id
end_header
91464.70 438361.88 9.85 1
91464.59 438362.64 10.23 1
91464.92 438361.59 10.23 1
91464.67 438363.71 10.38 1
91463.19 438363.18 9.85 1
91462.98 438362.74 10.04 1
91462.53 438363.38 10.36 1
91462.55 438363.65 10.53 1
91463.78 438362.04 9.75 1
91464.13 438361.50 8.84 1
91462.94 438361.10 9.31 1
91462.33 438361.70 9.68 1
91462.10 438361.50 9.82 1
91462.70 438361.41 8.15 1
91463.16 438360.44 8.21 1
91463.55 438359.88 8.53 1
91464.35 438360.64 8.66 1
91464.23 438359.98 8.87 1
91463.89 438360.03 9.62 1
91464.66 438360.64 7.41 1
91464.78 438361.64 7.78 1
91465.26 438361.19 8.11 1
91465.23 438360.74 7.43 1
91465.80 438360.60 7.92 1
91466.26 438361.33 8.03 1
91465.43 438360.28 8.15 1
91465.35 438360.08 8.28 1
91465.08 438360.38 9.69 1
91466.08 438360.65 10.04 1
91466.10 438360.74 10.12 1
91464.30 438362.34 3.21 1
91463.78 438362.33 3.22 1
91463.94 438363.48 3.32 1
91464.16 438363.70 3.62 1
91462.77 438362.03 3.86 1
91463.24 438363.42 3.09 1
91464.64 438361.40 3.01 1
91464.91 438361.02 3.80 1
91466.10 438361.20 4.17 1
91464.62 438362.26 1.69 1
91465.41 438360.82 -0.65 1
91465.59 438360.78 -0.64 1
91466.24 438360.36 -0.68 1
91466.32 438360.26 -0.68 1
91466.64 438360.36 -1.05 1
91464.71 438359.57 -0.67 1
91464.41 438359.72 -0.66 1
91464.04 438360.28 -1.06 1
91464.06 438359.90 -0.65 1
91463.85 438359.35 -0.68 1
91463.59 438359.33 -0.64 1
91467.88 438362.02 -0.69 1
91468.15 438361.46 -0.68 1
91468.04 438360.46 -1.73 1
91468.25 438361.67 -0.69 1
91468.42 438358.74 -1.22 1
91468.88 438358.40 -1.08 1
91469.10 438357.72 0.08 1
91469.64 438356.44 0.62 1
91469.94 438356.15 0.28 1
91469.95 438356.10 -1.07 1
91471.04 438355.57 1.06 1
91471.22 438355.26 0.97 1
91466.62 438356.01 2.00 1
91470.65 438354.61 -1.08 1
91465.83 438356.37 1.66 1
91466.25 438355.82 1.95 1
91465.29 438355.48 1.96 1
91465.18 438355.96 1.96 1
91465.46 438356.18 1.03 1
91464.80 438355.33 1.97 1
91466.79 438354.38 1.95 1
91466.50 438354.07 1.93 1
91464.39 438355.62 1.57 1
91465.78 438353.80 1.90 1
91464.90 438354.13 1.97 1
91464.18 438354.84 1.95 1
91467.28 438353.70 1.95 1
91465.26 438353.58 1.90 1
91466.20 438353.34 1.90 1
91464.34 438353.98 1.90 1
91464.43 438352.77 1.92 1
91466.54 438353.20 1.90 1
91466.11 438352.25 1.90 1
91465.73 438352.01 1.91 1
91463.60 438354.19 1.90 1
91463.15 438354.69 1.95 1
91462.68 438353.35 1.91 1
91462.22 438354.49 1.55 1
91462.93 438352.65 1.91 1
91463.29 438352.53 1.92 1
91464.26 438352.31 3.27 1
91464.84 438352.59 3.61 1
91464.86 438352.21 4.20 1
91465.27 438352.41 4.19 1
91465.75 438351.50 1.91 1
91466.70 438351.89 1.91 1
91467.41 438351.96 1.90 1
91467.43 438351.16 1.89 1
91467.69 438352.34 1.96 1
91467.13 438350.50 1.91 1
91468.20 438352.04 1.95 1
91468.17 438352.62 1.95 1
91468.55 438351.92 1.98 1
91467.29 438350.04 1.91 1
91467.56 438349.91 1.90 1
91467.00 438349.74 1.90 1
91466.76 438349.88 1.90 1
91468.25 438349.93 1.91 1
91469.01 438350.60 1.92 1
91469.40 438350.32 1.98 1
91468.82 438351.38 1.97 1
91469.63 438349.77 1.96 1
91469.87 438349.61 2.02 1
91470.20 438347.86 1.90 1
91470.45 438347.69 1.96 1
91470.37 438347.50 1.96 1
91471.34 438346.50 1.97 1
91471.22 438346.34 1.92 1
91471.57 438345.62 1.95 1
91471.92 438344.83 1.93 1
91471.05 438344.73 1.89 1
91472.35 438344.44 1.93 1
91472.02 438344.19 1.94 1
91470.66 438344.39 1.89 1
91472.53 438343.87 1.92 1
91472.31 438343.73 1.95 1
91470.20 438343.78 1.90 1
91469.73 438342.42 1.90 1
91470.31 438342.27 1.91 1
91471.01 438341.87 1.91 1
91470.71 438341.45 1.90 1
91471.41 438342.11 1.90 1
91470.11 438341.05 1.90 1
91470.57 438340.89 1.90 1
91470.14 438340.61 1.90 1
91469.68 438340.00 1.91 1
91469.98 438339.42 1.92 1
91469.69 438339.49 1.93 1
91472.64 438343.40 1.95 1
91462.71 438354.75 0.01 1
91463.33 438355.08 -1.42 1
91463.68 438355.26 -1.70 1
91463.18 438358.61 -1.24 1
91461.86 438357.98 -0.68 1
91462.12 438358.18 -0.65 1
91467.01 438354.23 -1.00 1
91461.58 438358.14 -0.64 1
91461.11 438358.05 -0.65 1
91460.93 438358.48 -0.66 1
91461.26 438358.91 -1.09 1
91460.63 438357.85 -0.64 1
91462.49 438358.76 -0.65 1
91460.39 438357.12 -0.64 1
91459.81 438357.89 -0.61 1
91462.90 438359.36 -0.65 1
91459.10 438357.55 -0.62 1
91458.86 438357.31 -0.61 1
91459.31 438356.92 -0.63 1
91458.70 438356.36 -1.04 1
91457.58 438356.33 -0.62 1
91457.74 438355.95 -0.62 1
91457.67 438358.81 1.32 1
91457.42 438359.64 4.32 1
91458.09 438358.96 4.68 1
91456.65 438356.08 -0.61 1
91458.52 438359.84 5.06 1
91458.50 438359.76 6.05 1
91457.84 438359.34 5.99 1
91458.33 438358.56 6.17 1
91457.75 438360.18 6.60 1
91457.99 438358.35 6.17 1
91457.20 438360.22 6.54 1
91457.36 438358.40 5.95 1
91459.07 438357.78 4.94 1
91457.98 438357.78 5.46 1
91457.18 438360.35 6.74 1
91457.69 438357.80 5.50 1
91457.94 438357.59 5.18 1
91458.12 438357.05 6.52 1
91456.89 438357.92 6.50 1
91457.55 438357.68 7.30 1
91457.82 438357.81 8.13 1
91457.59 438357.61 8.39 1
91458.21 438359.05 7.58 1
91456.23 438358.47 7.11 1
91457.88 438359.33 7.30 1
91455.81 438357.82 7.74 1
91458.37 438357.96 9.00 1
91458.63 438358.73 9.53 1
91458.34 438358.76 9.59 1
91457.45 438359.16 9.36 1
91456.75 438358.15 9.68 1
91458.04 438359.46 8.04 1
91456.44 438358.32 8.79 1
91457.28 438359.41 9.86 1
91456.67 438359.69 9.63 1
91457.78 438360.23 9.32 1
91457.11 438360.82 9.70 1
91456.12 438358.58 9.60 1
91455.38 438359.23 8.30 1
91457.01 438359.45 8.11 1
91456.75 438360.44 8.29 1
91456.87 438360.55 8.08 1
91456.11 438360.24 7.91 1
91458.40 438359.78 7.55 1
91459.34 438360.13 8.62 1
91459.28 438360.41 8.57 1
91458.70 438360.13 9.40 1
91455.80 438360.53 8.56 1
91455.95 438358.70 7.00 1
91456.49 438361.31 9.42 1
91455.62 438355.98 -0.93 1
91456.99 438355.47 -1.48 1
91455.62 438355.51 -0.60 1
91455.29 438355.31 -0.60 1
91455.15 438355.44 -0.57 1
91454.87 438355.68 -1.08 1
91454.38 438355.48 -0.54 1
91454.29 438355.21 -0.56 1
91454.97 438354.44 -1.70 1
91454.58 438354.25 -0.86 1
91453.59 438354.32 -0.59 1
91453.94 438355.12 -0.91 1
91452.80 438353.86 -0.60 1
91452.71 438354.37 -0.59 1
91452.53 438354.45 -0.58 1
91452.26 438353.81 -0.59 1
91452.22 438353.87 -0.58 1
91451.94 438353.69 -0.58 1
91451.59 438353.49 -0.57 1
91451.38 438353.82 -0.55 1
91450.82 438352.71 -0.55 1
91450.52 438354.84 -0.68 1
91450.47 438352.13 -1.58 1
91450.08 438351.96 -0.80 1
91449.41 438352.25 -0.54 1
91449.09 438351.93 -0.53 1
91449.00 438351.67 -0.54 1
91448.84 438352.56 -0.56 1
91448.45 438351.11 -1.31 1
91448.39 438352.76 -0.14 1
91447.74 438351.99 -0.98 1
91447.26 438351.87 -0.46 1
91447.56 438351.37 -0.52 1
91447.56 438350.77 -0.51 1
91448.10 438352.89 -0.04 1
91445.83 438351.11 -0.43 1
91445.13 438350.09 -0.50 1
91445.23 438349.92 -0.51 1
91444.86 438349.30 -0.51 1
91444.55 438349.12 -0.47 1
91444.22 438349.22 -0.48 1
91444.07 438346.31 0.70 1
91445.17 438345.34 2.62 1
91446.48 438346.24 2.94 1
91446.81 438346.15 2.90 1
91446.19 438346.17 3.39 1
91447.01 438345.97 3.05 1
91445.94 438345.54 2.72 1
91445.59 438345.64 2.96 1
91446.66 438345.16 3.97 1
91445.06 438344.90 4.34 1
91467.76 438352.79 -1.43 1
91468.42 438351.51 -1.44 1
91469.71 438348.98 -0.85 1
91471.62 438352.95 -1.06 1
91471.04 438353.86 -0.27 1
91471.77 438352.46 -0.08 1
91471.86 438352.38 -0.03 1
91471.89 438354.96 0.85 1
91472.26 438351.58 0.39 1
91472.77 438351.63 0.90 1
91474.15 438355.10 0.55 1
91474.13 438355.06 1.50 1
91476.56 438351.65 0.38 1
91476.46 438351.42 0.24 1
91476.78 438351.24 -0.29 1
91477.02 438351.71 0.67 1
91478.10 438351.75 0.68 1
91474.23 438348.99 0.33 1
91474.20 438349.00 -0.19 1
91472.70 438350.63 -1.11 1
91473.85 438348.47 -0.89 1
91473.59 438348.74 -1.27 1
91475.39 438347.40 1.11 1
91475.31 438347.00 1.03 1
91474.80 438346.70 0.62 1
91475.09 438346.16 0.21 1
91475.60 438346.30 -0.79 1
91474.98 438346.10 -1.18 1
91475.55 438345.45 -1.01 1
91478.13 438346.23 -0.82 1
91476.23 438344.00 0.16 1
91476.13 438344.29 -1.08 1
91477.09 438341.90 -1.15 1
91476.72 438341.79 -1.33 1
91475.74 438341.55 -0.82 1
91474.50 438340.94 -0.82 1
91474.22 438340.79 -0.94 1
91475.45 438337.90 -0.72 1
91478.05 438337.64 0.78 1
91477.72 438337.43 1.37 1
91481.97 438348.35 -0.46 1
91482.54 438349.89 -0.82 1
91483.26 438347.17 -0.41 1
91482.84 438349.80 -1.01 1
91483.71 438347.53 0.23 1
91484.48 438348.56 0.03 1
91484.82 438347.96 0.41 1
91485.42 438348.62 0.27 1
91484.66 438347.11 0.30 1
91484.33 438347.06 0.17 1
91485.83 438347.84 -0.11 1
91485.56 438347.26 -0.09 1
91471.44 438345.64 -0.62 1
91473.24 438365.60 7.96 1
91473.62 438365.69 8.35 1
91473.27 438365.42 8.54 1
91473.94 438365.63 8.97 1
91474.15 438365.33 7.78 1
91473.94 438365.10 7.66 1
91473.83 438365.16 7.50 1
91474.23 438364.73 8.10 1
91473.92 438364.48 7.70 1
91473.16 438364.66 9.56 1
91474.48 438364.38 7.67 1
91474.95 438364.40 7.99 1
91474.32 438363.99 8.18 1
91474.63 438364.11 8.31 1
91474.60 438363.26 8.14 1
91474.78 438365.44 6.75 1
91474.93 438364.20 9.13 1
91475.01 438365.73 6.82 1
91473.62 438363.52 9.49 1
91473.96 438364.11 10.41 1
91474.28 438364.17 10.80 1
91473.25 438363.48 8.60 1
91472.59 438363.86 8.66 1
91472.19 438362.80 9.58 1
91472.11 438363.05 10.03 1
91471.91 438363.22 9.13 1
91472.06 438364.16 8.75 1
91471.68 438363.08 7.94 1
91472.65 438363.77 7.18 1
91472.06 438363.04 7.42 1
91472.27 438363.10 7.27 1
91472.43 438362.27 7.26 1
91471.64 438362.99 6.62 1
91471.08 438362.49 7.31 1
91472.45 438364.53 6.96 1
91471.38 438364.54 7.05 1
91471.77 438363.53 10.59 1
91467.87 438373.01 0.96 1
91467.14 438371.98 0.48 1
91465.82 438367.56 -1.03 1
91477.09 438372.25 6.58 1
91488.34 438375.61 6.52 1
91489.01 438376.26 6.51 1
91489.10 438376.13 6.52 1
91489.69 438376.30 6.54 1
91489.96 438376.16 6.52 1
91490.74 438376.39 6.52 1
91491.00 438376.71 6.53 1
91491.44 438375.98 6.53 1
91491.87 438375.55 6.52 1
91491.64 438374.98 6.53 1
91491.22 438374.68 6.51 1
91492.56 438375.83 6.54 1
91491.83 438373.73 6.51 1
91492.76 438374.18 6.52 1
91493.09 438374.47 6.51 1
91493.10 438374.30 6.53 1
91493.46 438373.92 6.51 1
91493.65 438374.23 6.51 1
91493.83 438374.91 6.52 1
91493.96 438373.75 6.50 1
91493.53 438375.35 6.53 1
91494.59 438373.72 6.52 1
91494.89 438374.06 6.52 1
91494.89 438374.78 6.54 1
91495.66 438374.03 6.52 1
91495.74 438373.73 6.53 1
91495.93 438373.28 6.52 1
91495.15 438375.17 6.54 1
91496.11 438373.23 6.54 1
91496.35 438373.52 6.53 1
91496.09 438372.66 5.89 1
91495.61 438374.98 6.56 1
91495.32 438375.48 6.55 1
91499.51 438375.64 -0.59 1
91498.58 438373.19 -0.10 1
91499.75 438375.50 -0.46 1
91498.18 438372.90 -0.23 1
91496.81 438373.42 0.55 1
91499.40 438376.53 -0.58 1
91495.68 438374.94 -0.98 1
91496.99 438371.81 -0.53 1
91493.51 438372.45 -0.64 1
91493.11 438373.61 -0.98 1
91493.44 438373.92 -1.01 1
91492.18 438373.20 -1.01 1
91492.72 438371.03 -0.50 1
91490.82 438370.02 2.09 1
91491.74 438369.15 2.50 1
91489.82 438367.52 2.70 1
91491.17 438368.65 5.58 1
91490.83 438368.77 5.52 1
91490.63 438366.16 2.56 1
91490.77 438368.57 5.52 1
91490.01 438368.17 5.56 1
91489.29 438369.35 6.72 1
91488.72 438368.92 5.46 1
91488.63 438370.52 6.48 1
91488.55 438371.08 6.48 1
91487.79 438371.65 6.50 1
91487.40 438371.28 6.50 1
91489.65 438365.50 2.37 1
91490.35 438365.44 1.43 1
91490.63 438365.38 1.37 1
91489.20 438366.63 3.16 1
91490.89 438364.99 1.44 1
91490.14 438364.88 1.26 1
91488.80 438364.60 3.41 1
91489.75 438364.42 0.76 1
91489.38 438365.85 4.99 1
91491.24 438363.25 2.86 1
91492.02 438363.49 2.88 1
91490.21 438365.24 5.54 1
91491.58 438363.66 4.81 1
91488.39 438364.39 4.02 1
91491.94 438363.44 4.63 1
91492.75 438364.24 4.16 1
91493.10 438363.53 4.08 1
91490.87 438362.30 4.98 1
91493.18 438364.51 4.26 1
91492.32 438363.33 2.57 1
91493.28 438364.07 1.81 1
91493.63 438363.97 1.76 1
91491.99 438361.39 2.28 1
91494.31 438364.41 1.88 1
91493.90 438365.11 1.70 1
91495.08 438365.47 2.01 1
91494.97 438362.74 1.86 1
91492.62 438359.85 2.46 1
91493.60 438359.57 3.44 1
91493.93 438358.91 3.38 1
91492.63 438358.47 3.83 1
91492.15 438358.33 4.05 1
91492.47 438358.01 4.41 1
91494.14 438357.92 5.54 1
91493.92 438358.82 5.79 1
91494.06 438358.79 5.83 1
91493.66 438359.01 6.41 1
91493.84 438357.94 6.34 1
91494.28 438357.78 5.93 1
91487.92 438364.15 3.25 1
91488.34 438364.36 0.75 1
91489.31 438363.98 0.15 1
91489.98 438364.53 -0.88 1
91492.71 438361.44 -1.01 1
91493.75 438362.10 -0.94 1
91494.68 438361.98 -0.94 1
91495.31 438361.13 -0.97 1
91490.60 438359.68 -0.94 1
91495.48 438360.98 -0.96 1
91491.29 438358.56 -0.97 1
91495.39 438363.50 -0.82 1
91491.78 438357.97 -1.00 1
91496.00 438359.96 -0.95 1
91491.50 438358.04 -0.95 1
91491.73 438357.29 -1.08 1
91492.68 438356.17 -0.95 1
91490.68 438357.31 1.44 1
91488.37 438359.98 -0.35 1
91490.34 438354.36 0.14 1
91490.54 438353.83 0.20 1
91491.14 438353.95 0.31 1
91490.52 438353.41 -0.50 1
91491.06 438353.29 0.03 1
91491.30 438353.09 -0.18 1
91490.51 438353.14 -0.93 1
91488.05 438353.48 -0.25 1
91487.75 438353.14 -0.30 1
91486.84 438353.17 -0.31 1
91486.82 438352.42 -0.33 1
91486.13 438352.00 -0.73 1
91485.85 438350.87 -0.80 1
91484.69 438354.91 -0.77 1
91490.53 438351.16 -1.06 1
91490.20 438350.91 -1.07 1
91492.26 438348.69 -0.03 1
91493.27 438349.03 0.01 1
91494.57 438347.96 0.80 1
91494.95 438348.05 -0.74 1
91494.84 438347.04 0.18 1
91495.08 438347.18 -0.09 1
91495.09 438346.38 -0.31 1
91495.23 438346.02 0.40 1
91494.87 438345.77 -0.66 1
91494.96 438345.53 -0.11 1
91496.25 438346.45 -1.19 1
91496.90 438347.16 -0.44 1
91496.43 438348.58 -0.92 1
91496.67 438349.15 -0.46 1
91497.35 438348.80 -1.05 1
91496.00 438350.24 -0.89 1
91496.80 438350.76 -1.23 1
91498.28 438350.86 -0.66 1
91498.65 438350.33 0.02 1
91499.10 438351.51 0.21 1
91495.79 438353.43 -0.48 1
91495.48 438353.66 -0.95 1
91495.45 438353.44 -0.01 1
91495.64 438353.82 0.09 1
91495.03 438353.86 -1.01 1
91496.64 438354.21 0.78 1
91496.44 438354.84 1.24 1
91495.50 438356.45 -0.95 1
91498.38 438354.16 -1.14 1
91500.59 438352.86 -0.42 1
91501.07 438353.77 -0.05 1
91499.93 438351.57 -0.24 1
91501.16 438352.36 0.34 1
91501.53 438352.61 0.49 1
91501.94 438353.08 0.07 1
91502.47 438352.08 1.01 1
91501.62 438353.49 1.08 1
91502.25 438353.96 1.48 1
91502.69 438353.60 0.99 1
91502.96 438353.49 1.22 1
91502.19 438352.23 1.72 1
91502.61 438354.84 1.01 1
91503.33 438353.58 0.83 1
91504.03 438353.39 0.89 1
91503.42 438354.47 1.44 1
91502.61 438354.28 -0.44 1
91503.89 438351.94 -0.28 1
91504.47 438351.46 -0.45 1
91503.07 438351.16 -0.74 1
91504.93 438351.43 0.13 1
91505.23 438351.76 0.15 1
91505.74 438352.02 0.17 1
91505.20 438350.05 0.35 1
91504.37 438349.53 0.42 1
91505.62 438348.92 0.09 1
91504.49 438348.41 0.09 1
91503.97 438348.20 0.08 1
91504.84 438347.46 0.19 1
91505.73 438347.28 0.32 1
91506.86 438347.80 -0.51 1
91505.32 438346.95 0.31 1
91506.02 438346.80 0.45 1
91504.92 438346.33 0.10 1
91506.31 438346.73 0.44 1
91504.64 438347.25 -1.03 1
91503.83 438346.98 -0.68 1
91504.10 438346.31 1.60 1
91506.79 438345.78 0.63 1
91507.01 438345.72 0.63 1
91507.36 438347.50 1.70 1
91508.63 438347.54 -0.65 1
91504.94 438343.73 -1.23 1
91502.80 438347.13 -0.40 1
91503.34 438347.77 -1.35 1
91502.72 438348.62 -1.11 1
91501.62 438348.18 1.40 1
91499.96 438347.99 -1.64 1
91508.54 438349.29 -0.18 1
91509.21 438349.43 0.16 1
91509.93 438349.90 -0.13 1
91511.10 438349.84 -0.61 1
91511.99 438351.39 -0.61 1
91512.38 438351.75 -0.60 1
91511.81 438352.55 -0.68 1
91510.71 438353.19 -0.87 1
91511.25 438353.51 -0.96 1
91510.26 438353.82 -1.27 1
91513.23 438353.36 -0.89 1
91514.29 438352.41 0.37 1
91512.89 438353.68 0.36 1
91513.80 438353.87 -0.26 1
91514.16 438353.57 0.37 1
91514.07 438354.33 -0.48 1
91513.75 438355.09 -0.35 1
91512.92 438355.50 -0.34 1
91513.53 438355.50 -0.47 1
91511.17 438354.98 0.25 1
91514.97 438353.39 0.87 1
91515.49 438354.35 -0.53 1
91513.13 438355.99 2.17 1
91511.78 438355.57 2.31 1
91511.85 438356.38 3.12 1
91511.68 438356.51 2.94 1
91511.41 438356.14 3.02 1
91511.01 438356.66 2.89 1
91511.37 438354.50 3.13 1
91511.33 438356.13 0.34 1
91512.37 438356.40 -0.61 1
91510.97 438355.43 0.27 1
91510.39 438355.21 0.07 1
91510.01 438354.83 0.09 1
91509.77 438355.27 -0.77 1
91511.99 438355.78 -0.95 1
91509.57 438356.06 -0.80 1
91510.01 438356.85 -0.90 1
91509.67 438357.17 0.28 1
91510.49 438354.65 2.29 1
91509.90 438355.21 2.98 1
91510.26 438355.47 3.18 1
91510.49 438355.18 3.77 1
91508.96 438355.29 2.20 1
91510.05 438356.27 3.14 1
91511.06 438354.15 4.02 1
91508.60 438354.79 2.46 1
91508.51 438355.65 2.31 1
91508.35 438355.47 1.97 1
91507.58 438356.01 2.06 1
91507.56 438355.57 1.26 1
91508.07 438357.12 2.04 1
91507.28 438355.73 1.06 1
91507.72 438357.25 2.79 1
91508.47 438356.06 4.13 1
91508.66 438357.10 3.48 1
91509.64 438356.10 3.75 1
91507.98 438355.85 0.48 1
91508.09 438356.60 0.48 1
91507.43 438356.64 0.76 1
91506.68 438356.39 0.62 1
91508.03 438355.66 -0.95 1
91507.86 438357.40 0.58 1
91507.75 438354.28 0.45 1
91508.43 438356.38 -0.95 1
91507.20 438357.28 0.23 1
91507.57 438357.51 0.53 1
91508.09 438354.26 -0.51 1
91508.32 438354.25 -0.63 1
91508.68 438354.14 -0.62 1
91506.76 438354.25 0.15 1
91508.58 438355.72 -1.41 1
91506.38 438354.19 0.30 1
91505.73 438355.61 1.09 1
91505.40 438356.70 0.70 1
91505.95 438356.94 0.65 1
91506.32 438356.68 1.93 1
91504.84 438356.84 1.64 1
91506.67 438356.93 2.13 1
91505.42 438355.98 3.10 1
91505.18 438356.66 4.44 1
91505.17 438357.50 2.60 1
91505.94 438357.48 2.21 1
91506.00 438357.19 4.55 1
91506.13 438356.56 4.92 1
91505.90 438358.06 4.43 1
91507.01 438357.54 4.26 1
91505.71 438358.51 4.44 1
91505.46 438358.62 4.42 1
91507.64 438357.32 4.39 1
91506.45 438358.08 3.15 1
91505.75 438355.90 5.71 1
91507.22 438357.16 5.92 1
91506.70 438356.08 5.89 1
91507.17 438358.48 3.81 1
91507.76 438358.15 4.33 1
91506.84 438359.00 4.50 1
91507.32 438359.38 3.52 1
91507.89 438358.97 4.22 1
91508.15 438358.50 4.21 1
91508.07 438357.84 3.95 1
91506.37 438359.41 3.72 1
91508.05 438357.41 3.19 1
91507.52 438358.95 5.25 1
91508.57 438359.11 3.51 1
91509.41 438359.27 4.59 1
91507.88 438359.29 5.22 1
91509.61 438359.60 1.97 1
91509.59 438357.60 2.88 1
91508.69 438357.96 5.10 1
91509.15 438357.60 4.94 1
91508.57 438357.13 5.17 1
91508.21 438357.46 5.66 1
91509.04 438356.83 4.94 1
91508.83 438359.16 5.85 1
91510.12 438357.29 4.45 1
91510.32 438356.41 4.56 1
91510.60 438356.11 4.32 1
91511.01 438355.50 4.58 1
91509.61 438356.88 6.37 1
91509.42 438355.86 7.04 1
91508.59 438357.96 6.93 1
91508.00 438356.36 6.45 1
91510.52 438356.92 7.81 1
91508.31 438357.35 7.58 1
91509.57 438358.82 6.38 1
91508.14 438355.62 6.21 1
91507.93 438355.37 5.13 1
91508.04 438356.13 5.14 1
91507.09 438356.34 6.03 1
91508.09 438355.84 7.53 1
91508.86 438355.48 4.49 1
91508.60 438355.52 4.35 1
91506.34 438356.29 6.40 1
91507.27 438357.71 6.44 1
91508.30 438358.52 6.79 1
91507.44 438359.08 6.83 1
91506.42 438358.89 5.81 1
91508.51 438358.80 7.81 1
91510.07 438358.38 8.20 1
91508.59 438357.14 8.76 1
91508.15 438360.31 9.00 1
91508.68 438358.20 9.79 1
91507.71 438357.47 9.41 1
91508.17 438358.95 10.15 1
91509.38 438359.02 10.43 1
91507.19 438359.07 11.26 1
91508.54 438357.32 10.13 1
91508.14 438357.09 9.92 1
91507.58 438357.37 11.38 1
91506.57 438357.28 11.21 1
91505.42 438359.12 11.12 1
91508.44 438356.23 9.03 1
91508.02 438355.96 9.06 1
91508.39 438355.69 8.57 1
91510.46 438355.44 9.40 1
91510.72 438355.40 9.46 1
91511.15 438355.72 10.32 1
91510.79 438356.16 10.24 1
91510.90 438355.58 10.74 1
91511.90 438354.52 9.35 1
91509.75 438354.92 10.85 1
91512.05 438355.96 10.53 1
91512.23 438354.33 8.96 1
91511.42 438357.22 9.40 1
91511.22 438355.19 11.38 1
91509.96 438354.39 11.07 1
91510.80 438357.38 8.43 1
91512.81 438356.30 8.72 1
91513.38 438355.95 8.61 1
91512.89 438356.95 9.00 1
91512.59 438356.31 7.83 1
91513.09 438356.30 9.60 1
91513.81 438355.75 8.08 1
91513.59 438355.51 7.86 1
91512.66 438357.46 9.64 1
91511.84 438355.76 7.35 1
91513.48 438357.19 10.13 1
91513.95 438355.68 10.01 1
91513.09 438356.65 10.52 1
91514.58 438355.64 9.16 1
91515.83 438356.23 9.81 1
91515.44 438355.95 10.44 1
91514.11 438354.98 10.68 1
91514.26 438356.09 10.84 1
91516.37 438356.20 9.94 1
91515.18 438357.73 8.78 1
91514.76 438358.42 8.02 1
91515.35 438358.88 8.79 1
91515.57 438358.59 9.52 1
91513.94 438358.15 8.77 1
91514.38 438357.62 7.25 1
91515.77 438358.20 10.48 1
91517.02 438358.70 9.41 1
91516.79 438358.97 9.67 1
91516.41 438358.58 10.55 1
91515.74 438358.67 6.62 1
91516.77 438360.26 8.38 1
91516.12 438360.00 8.99 1
91513.29 438356.48 6.48 1
91512.97 438356.33 5.98 1
91514.68 438361.76 8.36 1
91516.28 438361.49 9.98 1
91513.82 438359.67 10.59 1
91513.62 438360.54 11.28 1
91514.43 438359.21 10.63 1
91515.01 438364.38 5.97 1
91511.62 438361.88 10.31 1
91514.71 438359.12 10.90 1
91517.13 438359.84 10.36 1
91516.80 438359.34 10.61 1
91517.48 438359.25 10.81 1
91517.01 438359.02 10.45 1
91517.81 438359.13 10.19 1
91517.54 438359.99 11.72 1
91518.74 438360.83 9.88 1
91517.60 438358.00 10.96 1
91517.96 438358.26 11.36 1
91518.24 438357.95 11.22 1
91516.17 438357.21 11.07 1
91514.22 438357.89 11.04 1
91515.25 438359.23 11.47 1
91513.95 438358.03 11.66 1
91513.57 438358.26 11.24 1
91513.01 438358.41 10.87 1
91511.99 438358.25 11.32 1
91512.49 438358.81 10.09 1
91513.74 438356.59 11.53 1
91513.52 438356.31 11.30 1
91513.28 438356.13 10.92 1
91513.43 438355.60 11.16 1
91512.32 438355.90 11.50 1
91511.55 438358.58 10.71 1
91511.18 438358.84 10.23 1
91511.32 438358.34 10.48 1
91511.81 438358.23 8.74 1
91511.10 438359.90 9.73 1
91510.58 438358.42 10.57 1
91510.95 438358.45 8.57 1
91511.44 438357.87 7.07 1
91509.70 438361.29 10.53 1
91508.86 438361.48 11.20 1
91509.41 438361.98 11.71 1
91509.63 438363.30 11.28 1
91509.32 438363.18 11.51 1
91508.93 438363.22 11.76 1
91511.32 438363.44 10.49 1
91510.54 438364.96 10.81 1
91509.60 438365.13 11.51 1
91509.16 438366.16 11.27 1
91508.96 438366.00 9.20 1
91508.08 438367.44 10.77 1
91507.06 438367.20 11.59 1
91506.70 438367.93 11.12 1
91506.18 438366.86 8.75 1
91505.21 438365.23 10.15 1
91504.86 438365.38 9.92 1
91505.63 438364.90 8.06 1
91505.30 438364.81 7.59 1
91503.57 438365.78 8.11 1
91504.70 438365.56 7.12 1
91504.49 438365.85 5.72 1
91503.42 438365.66 5.88 1
91503.89 438365.41 5.27 1
91504.31 438366.34 4.81 1
91502.51 438366.01 5.72 1
91501.59 438366.80 4.58 1
91505.30 438365.72 3.01 1
91504.68 438365.81 2.34 1
91504.99 438365.48 1.98 1
91505.28 438365.12 1.78 1
91505.73 438365.63 2.19 1
91503.59 438365.18 1.67 1
91505.91 438364.61 2.48 1
91504.06 438364.94 0.97 1
91505.74 438365.12 0.66 1
91506.72 438364.52 2.14 1
91506.10 438363.80 2.39 1
91504.61 438363.02 2.30 1
91505.94 438363.97 0.41 1
91507.27 438362.87 1.07 1
91507.31 438361.06 1.50 1
91508.40 438361.55 1.76 1
91509.32 438362.10 1.92 1
91509.44 438361.74 1.63 1
91508.96 438361.27 2.18 1
91506.43 438361.09 2.79 1
91505.93 438361.21 2.85 1
91506.82 438360.71 3.35 1
91506.29 438360.02 2.58 1
91505.03 438360.69 1.91 1
91505.43 438359.75 3.70 1
91504.57 438360.29 2.09 1
91503.11 438360.22 2.14 1
91503.50 438361.20 1.47 1
91502.80 438359.91 2.21 1
91503.97 438360.05 0.24 1
91504.15 438362.21 2.49 1
91504.01 438362.82 1.17 1
91503.25 438364.54 0.59 1
91501.86 438362.27 1.09 1
91501.14 438363.63 0.28 1
91502.45 438361.08 -0.24 1
91501.17 438360.45 1.92 1
91502.04 438360.40 -0.22 1
91502.52 438360.08 2.02 1
91502.18 438359.74 1.16 1
91502.76 438359.18 1.12 1
91502.61 438359.83 -0.22 1
91503.20 438359.98 0.01 1
91504.31 438360.09 0.08 1
91506.83 438359.79 0.96 1
91507.04 438359.16 1.35 1
91506.36 438358.85 2.44 1
91505.83 438358.00 1.12 1
91504.24 438357.98 2.02 1
91502.15 438357.45 1.82 1
91501.41 438356.66 1.33 1
91500.37 438357.00 1.20 1
91500.15 438356.69 0.22 1
91498.85 438357.54 -0.94 1
91500.23 438358.42 -0.97 1
91496.64 438357.01 -0.96 1
91509.64 438362.00 2.73 1
91510.32 438359.82 1.32 1
91510.08 438360.11 0.72 1
91510.62 438359.81 2.11 1
91510.67 438359.61 0.72 1
91509.98 438359.39 0.57 1
91510.59 438358.59 -0.48 1
91509.21 438358.09 0.12 1
91509.65 438357.47 1.42 1
91509.31 438357.44 1.57 1
91509.99 438364.19 2.18 1
91509.77 438366.39 1.14 1
91510.38 438366.54 1.31 1
91510.36 438366.09 0.54 1
91510.06 438366.76 1.00 1
91511.58 438368.41 1.30 1
91509.11 438365.38 -0.81 1
91511.12 438369.48 0.87 1
91507.50 438365.71 0.02 1
91513.40 438365.99 0.68 1
91514.59 438365.63 1.39 1
91514.20 438365.05 1.93 1
91514.16 438365.28 3.20 1
91515.31 438365.16 5.91 1
91515.51 438366.96 7.09 1
91515.54 438366.43 9.96 1
91516.00 438367.38 9.57 1
91516.65 438368.04 9.82 1
91517.40 438367.05 10.46 1
91514.83 438366.75 11.13 1
91517.08 438365.02 10.76 1
91514.18 438366.78 11.99 1
91518.64 438362.67 10.87 1
91518.07 438361.46 11.83 1
91519.30 438360.98 10.55 1
91519.57 438360.71 10.41 1
91512.76 438373.28 -0.83 1
91513.61 438373.22 -0.19 1
91514.11 438373.25 -0.39 1
91513.17 438374.09 -0.09 1
91511.64 438374.48 -0.57 1
91511.19 438375.46 -0.58 1
91512.36 438375.93 1.37 1
91511.66 438377.06 -0.71 1
91511.56 438375.07 2.49 1
91513.03 438374.11 2.47 1
91512.81 438374.90 2.56 1
91510.76 438375.70 2.49 1
91511.74 438376.29 2.47 1
91511.53 438376.35 2.46 1
91514.81 438373.62 1.19 1
91515.17 438373.83 1.66 1
91515.79 438374.20 2.52 1
91516.72 438374.64 2.33 1
91514.01 438375.35 2.93 1
91513.51 438375.45 2.91 1
91516.67 438374.83 -0.60 1
91515.98 438375.59 2.92 1
91516.88 438375.96 2.91 1
91516.47 438376.77 2.92 1
91517.38 438376.30 2.91 1
91515.94 438377.21 2.93 1
91514.87 438376.83 2.95 1
91517.63 438375.93 2.90 1
91518.11 438375.44 3.09 1
91515.36 438377.99 2.94 1
91514.58 438377.69 2.96 1
91514.22 438378.58 2.97 1
91514.03 438379.01 2.99 1
91513.38 438376.68 2.94 1
91515.01 438379.24 2.97 1
91514.59 438379.34 2.97 1
91513.06 438376.72 2.94 1
91512.71 438376.77 2.96 1
91512.25 438378.04 2.97 1
91511.69 438377.68 2.99 1
91511.49 438377.16 2.51 1
91512.20 438379.65 3.00 1
91510.13 438378.31 2.46 1
91511.70 438379.72 1.48 1
91511.39 438380.23 3.04 1
91511.95 438380.53 3.03 1
91512.92 438380.37 3.02 1
91512.27 438381.67 3.06 1
91509.61 438379.73 3.03 1
91513.29 438380.74 3.02 1
91510.67 438379.12 1.47 1
91512.83 438382.00 3.05 1
91513.63 438380.68 3.00 1
91513.96 438380.67 3.00 1
91515.44 438380.76 3.00 1
91515.16 438381.66 3.02 1
91514.80 438382.55 3.03 1
91514.59 438382.91 3.21 1
91515.15 438383.23 3.22 1
91515.59 438383.22 3.04 1
91515.94 438381.96 3.01 1
91514.41 438384.16 4.04 1
91514.10 438384.24 4.03 1
91516.52 438381.21 2.98 1
91513.38 438383.89 4.04 1
91513.75 438384.29 4.04 1
91512.41 438384.04 4.08 1
91515.14 438385.28 4.04 1
91512.59 438382.73 4.06 1
91511.97 438384.24 3.11 1
91515.62 438385.22 4.05 1
91515.91 438384.31 4.03 1
91513.44 438386.13 2.92 1
91513.05 438386.98 2.91 1
91515.22 438387.12 2.94 1
91511.47 438385.20 3.10 1
91510.94 438386.57 2.96 1
91515.78 438387.41 2.93 1
91516.09 438386.54 2.92 1
91516.40 438385.51 4.04 1
91518.05 438385.89 4.04 1
91518.41 438385.45 4.02 1
91517.54 438384.33 3.84 1
91516.52 438383.88 4.10 1
91517.14 438383.56 3.02 1
91518.05 438383.91 3.03 1
91517.58 438382.32 3.01 1
91518.55 438384.28 3.02 1
91518.80 438383.89 3.02 1
91517.94 438381.88 3.00 1
91519.30 438383.50 2.99 1
91519.76 438382.38 2.98 1
91519.27 438385.08 3.02 1
91519.38 438381.92 2.96 1
91520.64 438384.39 3.00 1
91520.87 438382.40 2.97 1
91521.22 438383.19 2.98 1
91520.49 438385.21 3.04 1
91521.10 438385.58 3.02 1
91519.87 438385.58 3.74 1
91520.22 438385.86 4.05 1
91521.63 438384.42 3.00 1
91521.46 438386.39 3.06 1
91522.00 438384.79 3.02 1
91521.69 438386.73 4.01 1
91519.76 438387.00 4.03 1
91519.26 438387.43 4.05 1
91522.65 438387.15 4.02 1
91522.79 438385.64 3.01 1
91523.06 438385.68 3.01 1
91524.15 438386.88 2.48 1
91523.32 438385.32 3.01 1
91524.18 438385.70 2.46 1
91524.69 438385.28 2.47 1
91524.09 438383.45 2.96 1
91524.98 438383.35 3.10 1
91523.34 438383.37 2.96 1
91525.25 438382.97 3.12 1
91525.86 438382.53 2.49 1
91523.49 438382.58 2.97 1
91522.18 438383.63 2.97 1
91524.53 438382.25 2.95 1
91525.48 438382.26 2.99 1
91523.58 438381.81 2.96 1
91524.04 438381.05 2.92 1
91526.06 438382.16 2.44 1
91526.42 438382.58 2.46 1
91522.73 438381.29 2.94 1
91522.47 438381.69 2.95 1
91526.54 438381.45 2.44 1
91527.05 438381.13 2.44 1
91527.34 438380.70 2.44 1
91527.01 438382.69 2.50 1
91527.63 438380.32 2.51 1
91526.58 438379.46 1.59 1
91526.74 438378.74 1.53 1
91526.09 438379.45 -0.21 1
91525.90 438376.75 1.38 1
91525.16 438378.95 -0.26 1
91528.08 438376.70 1.68 1
91526.72 438376.29 1.69 1
91525.52 438379.15 -0.59 1
91525.80 438379.28 -0.80 1
91524.66 438378.96 3.04 1
91524.02 438378.37 1.72 1
91524.41 438379.44 2.90 1
91523.50 438379.43 2.91 1
91522.75 438379.36 2.90 1
91522.84 438378.22 2.92 1
91523.02 438377.95 2.61 1
91521.59 438379.64 2.93 1
91522.56 438377.62 1.52 1
91522.22 438377.44 1.83 1
91521.83 438377.29 2.88 1
91521.62 438377.69 2.88 1
91521.22 438377.02 2.56 1
91520.96 438376.80 0.34 1
91520.89 438377.22 2.88 1
91520.56 438377.19 2.93 1
91520.28 438378.40 2.92 1
91520.63 438379.18 2.93 1
91519.92 438377.58 2.92 1
91519.17 438378.37 2.92 1
91519.32 438377.21 2.92 1
91518.79 438377.93 2.94 1
91518.71 438379.49 2.94 1
91520.05 438380.40 2.96 1
91521.03 438380.40 2.95 1
91521.41 438380.78 2.95 1
91520.51 438381.59 2.96 1
91519.90 438381.19 2.96 1
91522.20 438381.65 2.94 1
91518.68 438381.06 2.96 1
91517.97 438380.29 2.97 1
91518.21 438379.87 2.96 1
91517.47 438379.93 2.95 1
91517.06 438380.76 2.98 1
91516.56 438379.58 2.97 1
91517.00 438378.35 2.94 1
91517.36 438377.91 2.94 1
91518.10 438377.11 2.92 1
91519.46 438376.40 2.91 1
91518.83 438375.69 1.79 1
91519.78 438376.20 1.69 1
91518.64 438375.59 -0.66 1
91520.15 438373.39 -0.04 1
91521.09 438373.05 -0.08 1
91520.33 438372.31 -0.30 1
91518.86 438371.35 0.11 1
91521.64 438373.16 0.75 1
91522.55 438373.88 0.19 1
91521.92 438373.46 1.94 1
91521.30 438373.77 2.84 1
91522.99 438373.60 1.79 1
91522.82 438374.41 1.71 1
91522.49 438372.68 2.93 1
91522.26 438374.26 2.83 1
91521.65 438374.25 3.59 1
91522.28 438374.86 4.12 1
91521.13 438374.80 3.93 1
91522.02 438375.04 4.51 1
91522.84 438373.53 4.49 1
91521.47 438375.45 4.33 1
91524.04 438372.63 3.15 1
91523.29 438372.25 3.82 1
91523.71 438373.13 4.48 1
91522.85 438371.72 4.99 1
91524.04 438373.15 4.59 1
91523.01 438372.85 5.13 1
91524.39 438372.81 2.73 1
91523.43 438371.55 5.41 1
91524.42 438373.60 4.53 1
91521.84 438372.35 5.33 1
91523.21 438372.48 5.92 1
91522.15 438373.09 5.46 1
91523.49 438374.05 5.09 1
91522.89 438374.24 5.54 1
91524.08 438373.83 5.67 1
91523.27 438374.86 5.87 1
91523.69 438373.56 6.14 1
91523.01 438373.35 6.57 1
91523.53 438374.90 6.67 1
91523.82 438374.75 6.94 1
91523.04 438375.68 6.70 1
91522.71 438375.39 6.48 1
91522.42 438375.13 6.14 1
91522.46 438373.76 6.58 1
91522.27 438375.34 5.67 1
91522.15 438373.60 6.81 1
91521.58 438374.70 6.01 1
91521.04 438374.98 6.06 1
91520.66 438374.53 6.13 1
91521.64 438373.28 6.62 1
91521.05 438373.50 6.83 1
91519.99 438374.52 6.19 1
91519.81 438375.03 6.73 1
91519.62 438373.83 6.81 1
91519.66 438375.00 5.13 1
91519.39 438373.48 5.89 1
91520.39 438372.85 6.42 1
91516.07 438380.41 2.98 1
91510.61 438386.60 3.03 1
91510.37 438386.47 2.63 1
91509.29 438385.95 2.61 1
91509.66 438385.00 2.61 1
91510.99 438384.24 2.64 1
91511.65 438384.12 2.66 1
91512.13 438383.19 2.68 1
91509.26 438378.84 2.50 1
91510.26 438376.66 2.45 1
91506.76 438364.09 13.21 1
91507.29 438363.29 14.02 1
91507.04 438364.23 14.50 1
91508.36 438363.45 13.21 1
91507.72 438364.03 14.77 1
91506.47 438362.34 13.77 1
91505.61 438363.69 14.75 1
91508.73 438363.89 12.93 1
91505.97 438361.97 13.16 1
91506.75 438361.77 13.19 1
91506.16 438361.93 13.96 1
91507.97 438365.67 14.50 1
91509.02 438363.32 13.13 1
91507.78 438362.40 14.86 1
91508.85 438363.81 14.69 1
91509.00 438364.11 15.60 1
91509.82 438363.84 15.13 1
91509.51 438364.12 15.47 1
91509.69 438362.49 13.91 1
91510.38 438363.25 15.43 1
91508.79 438365.33 15.72 1
91511.32 438354.67 4.52 1
91511.12 438354.74 4.52 1
91510.64 438354.80 4.52 1
91513.55 438355.51 12.19 1
91513.10 438357.25 11.81 1
91511.57 438355.66 12.03 1
91513.60 438357.46 13.01 1
91514.33 438357.41 13.08 1
91512.37 438356.96 13.47 1
91510.94 438356.60 12.75 1
91511.21 438356.81 12.10 1
91513.63 438358.10 14.23 1
91511.11 438355.32 13.77 1
91512.36 438359.03 13.03 1
91511.24 438358.59 12.49 1
91511.49 438358.90 12.55 1
91514.63 438357.39 13.03 1
91514.96 438357.80 13.00 1
91514.61 438357.68 14.21 1
91515.50 438359.19 12.47 1
91515.07 438357.31 15.14 1
91515.60 438358.64 14.75 1
91514.38 438358.60 15.56 1
91516.37 438358.12 15.11 1
91515.98 438358.87 14.33 1
91516.25 438358.88 14.28 1
91513.54 438358.27 16.34 1
91513.84 438357.58 17.04 1
91514.40 438357.44 17.35 1
91515.86 438358.95 16.65 1
91516.21 438359.24 16.02 1
91515.37 438359.96 16.79 1
91516.82 438358.38 16.33 1
91516.29 438358.49 17.74 1
91515.50 438359.12 18.02 1
91516.80 438358.81 17.85 1
91514.79 438360.06 17.42 1
91517.75 438358.70 16.44 1
91514.03 438358.96 17.29 1
91514.69 438357.71 17.65 1
91513.85 438359.25 16.69 1
91513.57 438360.16 16.43 1
91513.07 438359.24 17.68 1
91513.25 438360.41 17.65 1
91514.62 438360.18 15.41 1
91512.90 438360.30 17.90 1
91512.65 438360.62 18.11 1
91511.90 438359.87 17.18 1
91511.60 438360.10 17.55 1
91511.29 438359.41 17.51 1
91513.84 438360.24 19.54 1
91512.45 438360.74 16.10 1
91512.05 438358.60 17.54 1
91514.39 438361.33 17.10 1
91514.74 438361.83 17.66 1
91514.55 438362.43 17.17 1
91515.23 438360.91 16.37 1
91515.07 438361.44 15.93 1
91514.45 438361.19 15.69 1
91514.13 438362.71 17.50 1
91514.18 438362.37 15.70 1
91515.81 438361.30 18.17 1
91515.49 438361.42 18.65 1
91515.78 438361.55 19.33 1
91516.60 438361.04 18.83 1
91514.75 438362.38 19.00 1
91515.53 438359.93 19.57 1
91514.33 438359.83 19.66 1
91516.68 438360.81 16.79 1
91514.16 438363.35 18.63 1
91515.28 438363.76 18.45 1
91512.97 438363.02 18.68 1
91506.57 438354.72 4.62 1
91507.10 438353.57 4.29 1
91506.97 438352.74 4.45 1
91507.82 438353.87 3.19 1
91508.17 438353.70 3.36 1
91503.26 438346.83 3.80 1
91503.56 438345.76 5.07 1
91504.60 438346.36 5.73 1
91503.93 438345.75 7.61 1
91499.77 438345.00 5.04 1
91493.15 438345.25 0.30 1
91493.28 438344.08 0.41 1
91491.95 438344.21 0.33 1
91492.04 438343.29 0.08 1
91491.17 438342.28 0.16 1
91489.91 438342.50 0.10 1
91492.64 438342.13 1.97 1
91489.77 438341.71 0.18 1
91494.81 438343.02 0.34 1
91494.72 438343.95 0.04 1
91496.76 438361.05 1.60 1
91498.16 438361.22 2.18 1
91486.93 438357.34 3.84 1
91485.84 438356.04 3.94 1
91485.58 438355.27 4.97 1
91488.77 438356.65 5.10 1
91488.21 438354.89 6.45 1
91488.76 438355.05 7.82 1
91496.47 438357.49 7.89 1
91497.16 438357.94 8.15 1
91497.90 438359.52 7.76 1
91495.41 438360.82 11.48 1
91497.97 438360.72 10.41 1
91497.89 438361.09 9.54 1
91498.60 438364.93 10.02 1
91498.63 438365.51 9.87 1
91497.18 438365.09 9.77 1
91496.07 438365.07 10.53 1
91495.79 438365.07 9.93 1
91495.74 438364.87 9.83 1
91495.40 438364.65 9.39 1
91495.15 438364.44 9.68 1
91496.12 438364.04 8.94 1
91495.36 438363.93 8.35 1
91493.96 438364.23 8.77 1
91491.93 438362.17 8.59 1
91499.56 438355.74 7.99 1
91515.69 438368.40 12.49 1
91514.37 438366.81 14.38 1
91516.27 438367.52 15.21 1
91517.46 438367.34 14.99 1
91512.63 438367.13 13.87 1
91517.22 438367.75 15.74 1
91511.72 438367.36 13.78 1
91509.64 438367.88 14.05 1
91510.08 438369.20 13.64 1
91512.89 438365.95 15.51 1
91509.50 438368.33 14.84 1
91509.33 438367.18 14.93 1
91509.41 438366.67 15.00 1
91510.79 438368.68 16.17 1
91509.34 438366.31 12.51 1
91510.43 438366.31 16.34 1
91512.56 438367.73 16.75 1
91513.00 438369.09 16.18 1
91513.58 438368.75 16.95 1
91511.97 438368.74 17.36 1
91512.34 438368.07 17.79 1
91512.52 438367.95 17.96 1
91513.64 438369.67 18.25 1
91512.05 438367.50 17.45 1
91510.57 438369.96 11.95 1
91510.66 438370.65 12.15 1
91508.61 438368.10 14.96 1
91510.70 438371.15 12.67 1
91510.18 438370.77 11.95 1
91508.93 438368.21 15.44 1
91507.98 438368.15 14.30 1
91511.10 438370.87 10.66 1
91509.03 438370.54 13.82 1
91511.01 438371.59 14.12 1
91509.75 438370.84 12.90 1
91507.61 438368.15 14.37 1
91507.90 438367.29 13.62 1
91508.18 438366.99 14.18 1
91508.15 438367.38 15.83 1
91508.40 438366.62 14.81 1
91508.34 438366.05 14.37 1
91508.60 438365.90 15.42 1
91509.14 438366.13 15.52 1
91508.97 438366.87 16.47 1
91508.54 438366.24 17.20 1
91508.31 438364.31 16.44 1
91507.82 438363.58 17.31 1
91508.93 438364.40 17.54 1
91507.14 438363.43 17.06 1
91509.90 438365.01 16.73 1
91506.59 438364.55 17.34 1
91524.31 438367.27 10.10 1
91524.35 438365.95 10.58 1
91524.33 438369.12 9.35 1
91523.81 438369.54 9.22 1
91525.15 438368.65 9.72 1
91526.48 438368.97 9.89 1
91525.91 438367.59 10.36 1
91527.55 438369.90 9.73 1
91528.40 438369.01 10.29 1
91528.92 438369.94 10.01 1
91527.54 438371.29 9.14 1
91527.22 438371.29 9.21 1
91528.44 438371.36 9.31 1
91527.52 438368.01 10.51 1
91529.89 438371.29 9.68 1
91530.14 438370.88 9.93 1
91530.32 438370.37 10.14 1
91530.89 438371.87 9.50 1
91528.54 438363.05 11.75 1
91536.46 438362.66 9.14 1
91536.06 438362.08 9.44 1
91535.57 438361.56 9.77 1
91535.10 438361.42 9.97 1
91536.91 438361.71 9.10 1
91537.80 438360.31 9.17 1
91536.35 438360.15 9.73 1
91537.18 438359.31 9.57 1
91536.73 438358.70 9.88 1
91534.41 438359.99 10.61 1
91534.00 438359.92 10.76 1
91535.73 438358.25 10.39 1
91536.18 438357.32 10.33 1
91537.82 438357.53 9.66 1
91537.12 438355.96 9.56 1
91533.65 438360.30 10.86 1
91533.38 438361.08 10.79 1
91538.13 438356.54 9.38 1
91523.09 438351.41 12.55 1
91529.84 438356.81 13.19 1
91530.86 438355.82 13.08 1
91533.94 438352.13 5.78 1
91533.48 438351.72 4.93 1
91532.70 438351.43 3.80 1
91533.22 438351.84 2.83 1
91535.18 438353.77 2.88 1
91531.85 438350.34 2.80 1
91531.18 438349.58 2.81 1
91532.60 438350.00 1.72 1
91530.37 438349.11 3.70 1
91529.48 438347.82 2.99 1
91536.54 438354.81 2.86 1
91534.88 438353.54 0.52 1
91537.02 438355.32 1.80 1
91538.97 438354.25 2.41 1
91537.20 438350.44 1.93 1
91537.04 438349.35 1.84 1
91535.73 438349.29 2.41 1
91539.64 438352.77 3.48 1
91540.87 438352.99 3.21 1
91541.24 438354.81 1.66 1
91538.02 438356.59 3.74 1
91536.47 438355.09 -0.73 1
91512.60 438330.98 0.47 1
91512.88 438331.03 0.38 1
91512.01 438330.98 5.58 1
91510.89 438329.99 1.97 1
91514.57 438329.46 0.71 1
91512.21 438330.17 -0.36 1
91510.40 438329.63 0.01 1
91514.67 438328.21 0.23 1
91509.52 438329.10 1.53 1
91514.31 438327.46 0.14 1
91508.95 438328.44 -0.67 1
91507.53 438327.15 -0.07 1
91507.64 438327.22 1.75 1
91508.64 438324.80 0.29 1
91509.40 438324.10 -0.03 1
91507.30 438324.57 0.95 1
91506.86 438324.51 1.37 1
91506.68 438324.69 0.98 1
91507.03 438323.99 0.60 1
91507.58 438324.68 1.69 1
91508.25 438324.43 1.34 1
91507.75 438323.52 1.85 1
91508.12 438323.26 0.53 1
91508.83 438324.39 1.41 1
91507.35 438322.97 1.30 1
91507.08 438322.91 0.40 1
91506.24 438325.53 2.01 1
91509.13 438324.59 1.81 1
91508.29 438323.10 1.96 1
91508.63 438323.16 1.71 1
91508.96 438323.08 0.90 1
91509.55 438324.35 1.34 1
91505.00 438324.18 2.99 1
91504.72 438323.52 0.76 1
91504.34 438323.17 0.83 1
91504.00 438322.39 -0.04 1
91503.60 438322.92 1.91 1
91503.84 438322.57 -0.54 1
91503.36 438322.90 2.08 1
91503.30 438321.74 0.18 1
91502.98 438322.24 2.03 1
91502.70 438321.86 0.10 1
91501.69 438321.59 -0.78 1
91500.88 438320.45 0.79 1
91500.54 438319.36 -0.12 1
91500.21 438319.14 0.71 1
91501.24 438320.63 -1.01 1
91499.75 438319.14 0.05 1
91502.91 438320.64 -0.86 1
91505.19 438324.19 6.00 1
91517.03 438324.44 -0.06 1
91517.53 438324.10 -0.03 1
91517.93 438324.82 0.08 1
91518.63 438325.66 0.08 1
91518.96 438326.08 0.07 1
91524.67 438343.52 1.71 1
91523.88 438342.76 2.36 1
91523.43 438342.44 5.19 1
91497.58 438317.04 3.16 1
91498.31 438317.78 3.77 1
91499.56 438318.57 5.97 1
91498.71 438317.62 9.26 1
91478.34 438304.13 6.43 1
91477.25 438304.12 5.15 1
91480.14 438303.68 9.32 1
91479.60 438303.84 9.32 1
91480.37 438303.80 9.37 1
91478.80 438303.75 9.29 1
91476.60 438304.13 5.72 1
91476.99 438304.12 4.21 1
91475.65 438304.26 2.56 1
91476.16 438303.51 9.29 1
91475.82 438303.88 9.30 1
91477.38 438303.84 9.31 1
91475.74 438304.02 9.47 1
91474.83 438303.79 9.22 1
91475.27 438304.33 9.50 1
91477.83 438304.37 9.58 1
91475.63 438304.55 9.65 1
91475.34 438304.52 9.70 1
91476.19 438304.73 9.74 1
91474.60 438305.13 9.93 1
91476.59 438305.27 10.07 1
91477.16 438304.87 9.85 1
91474.15 438304.00 9.36 1
91471.73 438304.37 3.83 1
91472.29 438304.24 4.83 1
91470.89 438304.28 4.98 1
91470.00 438304.26 5.10 1
91470.49 438304.11 5.91 1
91469.61 438304.29 3.52 1
91469.14 438304.30 6.29 1
91468.45 438304.27 5.82 1
91467.26 438304.79 3.62 1
91471.15 438296.18 -0.20 1
91471.48 438296.94 -0.51 1
91468.92 438295.83 -0.80 1
91468.71 438295.96 -0.98 1
91468.45 438296.44 -0.91 1
91473.33 438297.09 -0.80 1
91473.55 438295.61 -0.83 1
91473.94 438296.15 -0.62 1
91474.26 438295.68 -0.67 1
91475.30 438296.33 -0.12 1
91475.58 438295.92 -0.12 1
91475.77 438295.64 -0.60 1
91475.61 438296.62 -0.11 1
91476.17 438296.53 -0.14 1
91476.41 438295.82 -0.53 1
91476.94 438295.75 -0.62 1
91469.84 438291.37 -1.05 1
91469.71 438290.56 -0.76 1
91470.52 438291.02 -0.41 1
91470.05 438290.40 -0.65 1
91471.03 438290.68 -0.05 1
91471.00 438289.95 -1.39 1
91471.70 438291.23 -0.01 1
91471.89 438290.59 -1.04 1
91471.76 438290.08 -0.08 1
91472.08 438290.32 -0.01 1
91467.23 438290.14 -0.94 1
91472.50 438290.94 0.01 1
91471.19 438288.22 -1.24 1
91466.52 438290.24 -0.19 1
91466.56 438290.12 -0.15 1
91466.05 438290.16 -0.22 1
91466.14 438291.36 -1.15 1
91465.97 438291.16 -1.34 1
91464.78 438290.50 -0.80 1
91466.65 438289.80 2.25 1
91466.02 438289.24 2.70 1
91466.40 438288.24 2.86 1
91465.84 438288.56 2.98 1
91468.49 438288.27 2.32 1
91469.26 438288.84 3.03 1
91467.80 438287.58 3.27 1
91467.62 438288.16 3.46 1
91469.82 438288.13 3.73 1
91467.44 438286.50 2.55 1
91469.43 438287.72 4.11 1
91470.63 438288.38 2.46 1
91467.99 438287.56 4.30 1
91468.02 438289.48 4.07 1
91468.90 438286.56 3.83 1
91467.06 438287.68 4.05 1
91466.82 438287.65 3.87 1
91468.64 438289.40 4.41 1
91468.30 438289.22 4.70 1
91469.26 438289.27 4.41 1
91468.18 438289.14 4.82 1
91468.95 438289.72 4.99 1
91469.51 438289.39 5.62 1
91467.24 438288.87 4.65 1
91469.62 438289.85 5.57 1
91469.09 438288.89 5.87 1
91468.67 438288.60 5.96 1
91468.14 438290.85 5.33 1
91469.55 438290.95 4.69 1
91469.12 438291.37 4.65 1
91469.54 438291.56 4.80 1
91470.19 438290.73 4.66 1
91469.76 438291.98 5.10 1
91470.50 438291.50 5.21 1
91471.06 438290.44 4.69 1
91471.25 438291.57 4.25 1
91469.68 438290.62 6.52 1
91469.71 438290.37 6.69 1
91469.18 438289.69 6.53 1
91468.64 438291.01 6.49 1
91468.52 438290.03 6.30 1
91470.79 438291.68 6.80 1
91470.55 438290.36 7.79 1
91470.38 438292.16 6.59 1
91471.34 438291.24 6.51 1
91471.83 438291.11 6.36 1
91472.15 438291.11 5.93 1
91471.45 438290.28 5.89 1
91471.76 438290.06 5.04 1
91472.35 438289.55 6.24 1
91472.88 438289.95 5.83 1
91473.04 438288.71 6.03 1
91472.82 438288.36 6.72 1
91472.89 438288.40 5.60 1
91473.53 438290.36 5.79 1
91471.65 438289.96 4.92 1
91472.61 438289.33 4.58 1
91471.32 438289.59 4.88 1
91470.81 438288.65 4.83 1
91470.85 438289.92 3.80 1
91471.98 438288.80 4.13 1
91471.28 438289.60 3.53 1
91471.04 438288.29 4.57 1
91472.24 438288.28 4.33 1
91471.99 438288.89 3.43 1
91471.93 438288.27 3.61 1
91471.01 438288.32 3.30 1
91471.88 438287.61 4.02 1
91472.18 438287.49 4.02 1
91473.44 438289.05 4.12 1
91471.05 438287.68 2.82 1
91472.46 438287.49 4.25 1
91473.14 438286.94 4.28 1
91473.28 438287.97 4.36 1
91473.52 438287.44 4.62 1
91471.32 438286.93 5.01 1
91472.66 438286.71 5.50 1
91472.78 438287.67 5.74 1
91472.23 438286.21 5.25 1
91473.70 438288.58 4.34 1
91473.93 438288.64 5.12 1
91473.73 438289.83 4.64 1
91473.86 438289.88 4.59 1
91474.29 438288.42 2.95 1
91474.92 438287.93 3.29 1
91475.45 438287.46 2.85 1
91473.97 438287.22 3.26 1
91474.99 438286.92 2.58 1
91475.95 438288.22 2.60 1
91474.71 438287.07 2.37 1
91474.43 438287.16 2.21 1
91474.74 438286.43 2.88 1
91474.32 438286.98 2.18 1
91475.91 438286.51 3.41 1
91473.57 438286.94 2.54 1
91476.43 438286.77 2.90 1
91476.75 438286.60 3.09 1
91477.04 438287.17 3.00 1
91476.37 438287.07 2.15 1
91476.08 438286.35 2.26 1
91475.74 438286.49 2.22 1
91477.43 438286.92 3.30 1
91475.66 438286.27 2.16 1
91477.12 438286.51 1.86 1
91475.14 438285.94 2.97 1
91476.33 438285.31 3.68 1
91475.56 438285.09 3.06 1
91475.95 438284.32 3.40 1
91476.48 438284.59 2.83 1
91476.18 438284.81 2.50 1
91475.40 438284.25 2.78 1
91474.56 438285.40 3.30 1
91475.70 438283.82 2.68 1
91474.96 438283.98 2.81 1
91474.32 438284.71 3.40 1
91474.11 438284.77 2.06 1
91473.49 438284.88 3.58 1
91473.36 438284.89 3.33 1
91473.22 438284.89 3.67 1
91473.89 438285.80 3.69 1
91472.47 438284.68 3.89 1
91472.90 438284.56 2.64 1
91473.05 438285.86 3.14 1
91472.59 438285.85 4.67 1
91471.91 438285.22 2.58 1
91471.70 438286.14 2.37 1
91470.70 438285.63 2.77 1
91471.09 438284.57 3.37 1
91471.11 438286.35 2.25 1
91470.83 438286.75 2.67 1
91470.08 438284.82 2.41 1
91470.09 438285.48 3.91 1
91469.68 438285.15 4.11 1
91470.29 438284.88 4.71 1
91469.36 438285.38 5.03 1
91470.81 438286.59 4.47 1
91471.18 438285.87 5.04 1
91470.73 438284.87 5.34 1
91470.35 438285.68 5.63 1
91468.96 438285.02 5.47 1
91468.10 438284.04 4.83 1
91469.16 438286.63 5.89 1
91469.75 438286.42 6.06 1
91468.42 438283.53 4.82 1
91470.43 438286.54 6.30 1
91470.93 438286.69 6.39 1
91471.49 438286.39 6.77 1
91469.96 438287.64 5.17 1
91471.83 438285.86 5.71 1
91471.16 438288.10 5.94 1
91472.50 438288.58 6.88 1
91473.38 438287.89 6.30 1
91473.60 438286.68 6.08 1
91472.09 438285.17 5.16 1
91470.14 438288.30 4.09 1
91468.53 438287.17 4.77 1
91467.05 438286.38 4.90 1
91466.98 438287.96 4.54 1
91467.47 438288.09 5.87 1
91466.79 438286.59 4.47 1
91466.48 438286.75 4.16 1
91466.58 438287.60 4.48 1
91466.23 438285.24 4.76 1
91466.52 438287.72 5.84 1
91465.51 438287.03 3.24 1
91465.70 438288.10 4.36 1
91465.94 438288.19 5.01 1
91465.38 438288.17 5.17 1
91465.18 438288.06 5.18 1
91465.73 438288.93 4.03 1
91464.86 438289.21 4.57 1
91464.62 438287.46 4.46 1
91467.19 438287.83 5.97 1
91465.38 438287.32 6.27 1
91465.71 438287.10 6.46 1
91464.96 438286.99 6.65 1
91465.58 438286.10 6.42 1
91465.89 438286.19 6.87 1
91464.36 438286.34 6.28 1
91464.36 438287.77 5.33 1
91464.13 438286.29 5.73 1
91464.76 438286.98 4.55 1
91464.12 438287.77 4.42 1
91463.79 438287.87 4.66 1
91463.58 438286.21 4.32 1
91464.54 438285.72 5.32 1
91463.97 438286.31 3.41 1
91464.12 438285.60 4.30 1
91464.93 438285.66 3.75 1
91465.66 438285.47 3.28 1
91465.98 438285.17 2.72 1
91464.43 438284.79 5.04 1
91464.19 438284.15 3.91 1
91463.20 438285.47 3.66 1
91463.54 438285.25 2.70 1
91464.29 438285.49 5.45 1
91464.37 438283.74 3.57 1
91463.03 438286.92 4.00 1
91463.54 438287.49 2.61 1
91461.04 438285.52 2.85 1
91464.60 438283.46 4.20 1
91460.72 438285.25 3.14 1
91459.88 438286.24 2.33 1
91459.59 438284.55 3.39 1
91459.98 438285.17 4.49 1
91460.75 438286.17 4.93 1
91461.20 438287.27 4.18 1
91461.75 438287.27 4.51 1
91459.97 438287.56 3.93 1
91459.43 438286.42 4.76 1
91460.69 438287.80 4.50 1
91460.30 438285.45 5.63 1
91459.97 438285.80 6.23 1
91460.46 438286.54 5.55 1
91459.29 438285.61 5.21 1
91459.01 438286.16 5.06 1
91458.62 438286.28 6.22 1
91458.82 438284.53 4.61 1
91458.21 438285.38 6.26 1
91459.52 438287.53 5.85 1
91458.33 438286.34 6.39 1
91458.10 438286.17 6.17 1
91457.96 438285.13 6.18 1
91458.40 438287.86 4.98 1
91457.82 438288.33 5.38 1
91458.45 438288.27 3.61 1
91458.62 438289.11 4.11 1
91458.15 438288.43 3.53 1
91459.10 438288.93 4.04 1
91459.99 438288.25 5.32 1
91458.71 438287.87 3.27 1
91457.84 438287.52 3.11 1
91457.93 438286.13 4.13 1
91457.83 438285.42 4.15 1
91458.26 438284.88 4.01 1
91456.98 438284.01 3.83 1
91457.84 438283.95 5.37 1
91458.36 438284.26 5.95 1
91457.54 438284.21 6.35 1
91458.45 438285.17 6.57 1
91456.70 438284.99 6.09 1
91456.24 438284.10 6.10 1
91455.22 438283.88 4.71 1
91455.39 438285.21 4.95 1
91455.89 438283.66 4.37 1
91455.64 438284.54 4.23 1
91454.65 438283.79 4.70 1
91454.41 438284.00 4.43 1
91454.21 438284.20 4.08 1
91455.11 438285.11 4.53 1
91454.56 438285.26 4.84 1
91454.88 438285.08 3.62 1
91453.59 438285.25 5.22 1
91454.40 438285.61 4.02 1
91453.85 438284.88 6.25 1
91454.01 438285.94 6.04 1
91452.68 438286.24 4.90 1
91453.10 438287.21 5.77 1
91451.95 438287.27 5.49 1
91452.61 438287.73 3.91 1
