ply
format ascii 1.0
comment GEO1015 hw04
element vertex 1678
property double x
property double y
property double z
property int segment_id
end_header
91564.15 438244.04 5.29 3032
91564.34 438244.84 4.32 3032
91564.30 438245.29 5.77 -1
91564.54 438245.70 3.28 3032
91564.63 438246.10 2.82 3032
91564.73 438246.52 2.42 3032
91564.81 438246.89 2.08 3032
91564.50 438246.60 5.74 -1
91564.85 438247.21 2.17 -1
91564.49 438246.80 6.43 3315
91564.80 438247.35 3.17 -1
91565.07 438247.84 0.33 -1
91564.70 438247.43 4.80 -1
91565.05 438248.05 1.19 -1
91564.54 438247.42 6.90 -1
91564.79 438247.85 4.36 258
91564.54 438247.65 7.48 -1
91564.76 438248.04 5.20 3397
91564.83 438248.40 5.03 3397
91564.82 438248.63 5.66 3329
91565.03 438249.01 3.45 -1
91565.01 438249.20 4.18 3329
91564.97 438249.37 5.11 -1
91565.18 438249.75 2.90 3329
91564.89 438249.48 6.38 3315
91565.08 438250.07 5.05 258
91566.37 438255.86 -0.86 -1
91566.42 438256.44 -0.29 3357
91566.45 438256.96 0.39 10258
91566.65 438258.09 -0.10 -1
91566.53 438258.34 2.14 -1
91566.59 438258.68 2.08 277
91566.67 438259.30 2.25 3106
91566.75 438259.95 2.55 3106
91566.82 438260.58 2.82 3106
91566.89 438261.16 3.17 3106
91566.96 438261.78 3.50 3106
91567.02 438262.38 3.88 3106
91566.65 438262.11 8.50 3248
91566.75 438262.76 8.48 2990
91566.81 438263.37 8.93 2990
91566.88 438263.97 9.28 2990
91566.94 438264.55 9.59 194
91567.00 438265.14 9.97 194
91567.06 438265.73 10.40 194
91567.12 438266.30 10.85 194
91567.17 438266.85 11.31 194
91567.23 438267.45 11.76 194
91567.28 438268.02 12.21 194
91567.33 438268.57 12.65 194
91567.39 438269.15 13.08 194
91567.44 438269.71 13.55 194
91567.50 438270.28 13.98 194
91567.54 438270.82 14.45 194
91567.60 438271.42 14.90 194
91567.66 438271.99 15.31 194
91567.71 438272.54 15.75 194
91567.76 438273.09 16.23 194
91567.81 438273.66 16.68 194
91567.87 438274.22 17.10 194
91567.92 438274.77 17.52 194
91567.98 438275.35 17.98 194
91568.03 438275.91 18.44 194
91568.08 438276.45 18.87 194
91568.13 438277.01 19.32 194
91568.19 438277.57 19.74 194
91568.24 438278.13 20.18 194
91568.29 438278.67 20.60 194
91568.35 438279.25 21.03 194
91568.40 438279.81 21.47 194
91568.45 438280.34 21.90 194
91568.52 438280.94 22.17 144
91548.79 438143.40 11.35 239
91548.89 438144.06 11.35 239
91548.99 438144.70 11.36 239
91549.06 438145.33 11.60 3251
91549.15 438145.98 11.74 3251
91549.26 438146.61 11.53 -1
91549.36 438147.24 11.47 239
91549.46 438147.85 11.42 239
91549.56 438148.53 11.44 239
91549.66 438149.17 11.41 239
91549.75 438149.78 11.43 239
91549.84 438150.42 11.43 239
91549.94 438151.06 11.44 239
91550.04 438151.70 11.44 239
91550.13 438152.31 11.44 239
91550.23 438152.98 11.45 239
91550.33 438153.62 11.45 239
91550.41 438154.24 11.62 3598
91550.59 438154.45 9.48 290
91550.65 438154.78 9.37 -1
91550.69 438155.12 9.53 290
91550.80 438155.38 8.58 242
91550.79 438155.77 9.57 290
91550.89 438156.03 8.64 242
91550.89 438156.38 9.36 -1
91550.94 438156.68 9.34 -1
91551.04 438157.34 9.29 -1
91551.14 438157.63 8.58 242
91551.24 438158.28 8.57 242
91551.27 438158.93 9.44 290
91551.32 438159.25 9.43 290
91551.49 438159.52 7.62 -1
91551.65 438159.77 5.96 -1
91551.90 438160.01 2.97 -1
91552.06 438160.27 1.25 -1
91552.32 438160.81 -1.26 -1
91552.71 438167.20 6.88 -1
91552.74 438168.18 8.53 10094
91552.84 438168.82 8.37 -1
91553.01 438169.13 6.63 -1
91553.44 438170.02 2.58 -1
91553.38 438171.04 5.51 -1
91553.34 438171.38 6.89 -1
91553.37 438171.69 7.09 -1
91553.64 438171.98 3.92 10094
91553.74 438172.63 3.85 -1
91554.13 438172.96 -0.91 48833
91553.68 438173.29 6.10 -1
91553.65 438173.63 7.29 -1
91554.23 438173.61 -0.86 48833
91553.80 438173.93 5.84 -1
91554.36 438174.24 -1.37 -1
91553.94 438174.90 5.87 -1
91554.53 438175.89 -0.35 264
91554.63 438176.52 -0.39 264
91554.75 438177.18 -0.70 20207
91555.03 438178.82 -1.09 20207
91555.15 438179.48 -1.42 -1
91555.55 438185.51 5.84 -1
91555.61 438185.84 5.72 -1
91555.40 438186.07 9.16 -1
91555.63 438186.15 6.01 -1
91555.70 438186.50 5.80 -1
91555.74 438186.80 5.83 -1
91555.59 438187.07 8.51 9829
91555.69 438187.40 7.80 -1
91555.82 438187.75 6.75 252
91555.91 438188.39 6.87 -1
91556.01 438189.03 6.78 -1
91556.53 438191.69 5.10 10300
91556.62 438192.31 5.24 10274
91556.54 438192.55 6.89 10300
91556.78 438192.68 3.74 10300
91556.73 438192.97 5.09 10274
91556.70 438193.26 6.06 10300
91556.75 438193.58 6.06 10300
91556.93 438193.67 3.82 10300
91556.82 438193.91 5.85 10300
91556.79 438194.18 6.85 10300
91557.42 438194.56 -1.24 -1
91557.08 438194.64 3.71 10300
91557.04 438194.91 4.83 10300
91556.98 438195.17 6.17 10300
91557.05 438195.53 5.98 10300
91557.32 438195.69 2.62 10300
91557.34 438195.98 2.95 10300
91557.37 438196.32 3.14 10300
91557.32 438196.56 4.45 10300
91557.48 438197.23 3.53 10300
91558.06 438198.83 -1.17 20649
91558.03 438199.09 -0.22 -1
91558.04 438199.67 0.84 10328
91558.06 438199.98 1.26 -1
91558.21 438200.09 -0.58 -1
91558.24 438200.43 -0.37 -1
91558.32 438200.76 -0.71 3272
91558.36 438201.11 -0.63 3272
91558.40 438201.40 -0.47 -1
91558.40 438201.69 0.05 -1
91558.44 438202.30 0.79 10328
91558.51 438202.65 0.67 10328
91559.80 438210.62 -0.59 20295
91559.89 438211.25 -0.58 -1
91559.94 438211.60 -0.54 -1
91559.97 438211.91 -0.28 20295
91559.22 438211.69 9.90 3231
91559.33 438212.33 9.72 3231
91559.39 438212.93 10.16 58
91559.45 438213.55 10.52 58
91559.88 438214.29 6.17 -1
91560.81 438217.23 -0.68 -1
91561.39 438221.18 -0.46 -1
91561.47 438221.83 -0.31 -1
91562.28 438227.12 -0.35 -1
91562.35 438227.74 0.01 -1
91562.48 438228.46 -0.39 -1
91563.06 438232.14 -0.63 3340
91563.06 438232.69 0.48 3430
91563.15 438233.34 0.63 3340
91563.23 438233.96 0.84 -1
91563.28 438234.29 0.70 147
91563.55 438235.48 -0.50 3031
91563.39 438235.75 2.37 147
91563.44 438236.32 2.84 147
91563.48 438236.92 3.50 147
91563.51 438237.46 4.35 -1
91563.57 438238.05 4.68 147
91563.62 438238.63 5.29 147
91563.66 438239.20 5.90 147
91563.70 438239.76 6.57 147
91563.79 438240.40 6.61 220
91563.90 438241.09 6.56 220
91564.00 438241.75 6.56 220
91564.09 438242.39 6.57 220
91564.24 438243.13 6.14 3032
91564.43 438243.96 5.11 3032
91564.63 438244.79 4.09 3032
91564.82 438245.60 3.15 3032
91564.75 438245.72 4.45 3342
91564.64 438245.80 6.12 3342
91564.61 438245.98 6.88 3342
91565.08 438246.78 2.09 3342
91564.74 438246.47 6.09 3342
91564.90 438246.73 4.52 3342
91564.79 438246.78 6.11 3342
91565.33 438247.72 0.53 3032
91564.85 438247.12 6.05 3342
91565.04 438247.46 4.02 3342
91564.88 438247.41 6.21 3342
91565.26 438248.09 2.22 3342
91564.92 438247.74 6.30 3315
91565.12 438248.10 4.25 3342
91564.95 438248.04 6.58 3329
91565.26 438248.60 3.34 3342
91565.09 438248.52 5.66 3329
91565.27 438248.85 3.74 3342
91565.18 438248.95 5.18 3342
91565.39 438249.31 3.08 3342
91565.25 438249.29 5.05 258
91565.49 438249.73 2.57 3329
91565.29 438249.60 5.08 258
91565.33 438249.92 5.16 258
91566.69 438256.07 -0.84 -1
91566.74 438256.66 -0.35 3357
91566.90 438257.91 0.13 3357
91566.94 438258.49 0.79 -1
91567.00 438258.84 0.71 10258
91566.96 438259.26 2.08 277
91567.04 438259.86 2.34 3106
91567.11 438260.51 2.62 3106
91567.19 438261.14 2.93 3106
91567.25 438261.72 3.26 3106
91567.32 438262.34 3.57 3106
91566.91 438261.99 8.57 3248
91566.97 438262.35 8.49 3248
91567.07 438263.01 8.49 2990
91567.14 438263.60 8.84 2990
91567.21 438264.20 9.18 2990
91567.27 438264.81 9.52 194
91567.34 438265.38 9.87 194
91567.40 438265.99 10.29 194
91567.45 438266.57 10.72 194
91567.51 438267.12 11.18 194
91567.56 438267.70 11.63 194
91567.61 438268.27 12.08 194
91567.67 438268.83 12.55 194
91567.72 438269.39 12.97 194
91567.78 438269.98 13.42 194
91567.83 438270.55 13.89 194
91567.88 438271.09 14.32 194
91567.94 438271.67 14.76 194
91567.99 438272.23 15.22 194
91568.05 438272.80 15.64 194
91568.10 438273.34 16.08 194
91568.15 438273.93 16.55 194
91568.20 438274.49 17.02 194
91568.26 438275.04 17.41 194
91568.31 438275.60 17.85 194
91568.37 438276.16 18.31 194
91568.42 438276.72 18.74 194
91568.47 438277.26 19.18 194
91568.53 438277.85 19.62 194
91568.58 438278.41 20.05 194
91568.63 438278.95 20.47 194
91568.69 438279.51 20.90 194
91568.74 438280.06 21.35 194
91568.79 438280.62 21.77 194
91549.15 438143.32 11.35 239
91549.20 438143.62 11.36 239
91549.30 438144.26 11.34 239
91549.39 438144.90 11.37 239
91549.47 438145.57 11.68 3251
91549.58 438146.16 11.41 239
91549.92 438146.19 6.71 -1
91549.98 438146.51 6.48 -1
91549.86 438147.01 9.34 -1
91549.77 438147.48 11.61 -1
91549.83 438147.78 11.42 239
91549.92 438148.40 11.46 239
91550.02 438149.07 11.44 239
91550.12 438149.71 11.42 239
91550.21 438150.32 11.44 239
91550.30 438150.96 11.44 239
91550.40 438151.61 11.44 239
91550.50 438152.24 11.44 239
91550.59 438152.86 11.45 239
91550.69 438153.52 11.45 239
91550.79 438154.17 11.46 239
91550.86 438154.79 11.73 3598
91551.10 438155.32 9.50 290
91551.21 438155.62 8.64 242
91551.27 438156.28 9.14 -1
91551.35 438156.91 9.32 -1
91551.46 438157.55 9.25 -1
91551.60 438158.16 8.57 242
91551.70 438158.81 8.56 242
91551.73 438159.45 9.43 290
91551.78 438159.79 9.42 290
91552.06 438160.00 5.94 3389
91552.31 438160.22 3.00 -1
91552.51 438160.48 0.74 -1
91552.94 438166.45 7.30 10321
91553.11 438167.43 7.02 10321
91553.21 438167.72 6.28 10321
91553.33 438168.34 5.87 10321
91553.28 438168.71 7.34 10094
91553.26 438169.04 8.31 10321
91553.47 438169.00 5.31 3349
91553.41 438169.34 6.86 10321
91553.41 438169.68 7.61 10321
91553.61 438169.64 4.71 3349
91553.69 438169.96 4.22 3349
91553.57 438170.29 6.72 10321
91553.59 438170.60 6.98 10321
91553.73 438170.58 5.07 10094
91553.60 438170.95 7.69 10321
91554.22 438170.87 -1.28 -1
91553.82 438171.58 5.90 10321
91554.08 438172.52 4.20 3186
91553.90 438172.85 7.51 10321
91554.11 438172.84 4.50 10321
91554.02 438173.18 6.51 3186
91554.05 438173.52 6.76 10321
91554.59 438173.50 -0.87 48833
91554.22 438174.17 5.79 10321
91554.15 438174.47 7.45 10321
91554.30 438174.79 5.97 10321
91554.85 438175.45 -0.41 264
91554.90 438175.78 -0.29 264
91555.00 438176.44 -0.34 264
91555.13 438177.07 -0.91 48833
91555.33 438178.39 -0.90 20207
91555.43 438179.04 -0.93 48833
91555.55 438179.68 -1.23 20207
91555.91 438185.43 5.90 -1
91556.01 438186.05 5.94 -1
91555.99 438186.97 8.09 3187
91555.92 438187.23 9.70 -1
91555.95 438187.56 9.99 64707
91556.27 438187.70 5.71 3172
91556.28 438188.28 6.83 -1
91556.99 438192.22 5.29 10274
91556.91 438192.47 6.85 -1
91556.98 438192.80 6.55 -1
91557.05 438193.12 6.27 -1
91557.19 438193.51 5.15 10274
91557.08 438193.74 7.25 -1
91557.34 438193.90 3.85 -1
91557.14 438194.07 7.09 -1
91557.25 438194.14 5.59 -1
91557.26 438194.44 6.09 -1
91557.44 438194.54 3.86 -1
91557.31 438194.76 6.14 -1
91557.29 438195.03 6.93 -1
91557.28 438195.31 7.74 -1
91557.52 438195.46 4.68 10274
91557.42 438195.70 6.54 -1
91557.73 438196.48 3.92 -1
91558.25 438197.41 -1.41 3392
91558.34 438198.94 0.61 10328
91558.47 438199.33 -0.39 20130
91558.47 438199.63 0.14 3392
91558.43 438199.87 1.25 -1
91558.54 438199.95 -0.09 -1
91558.59 438200.28 -0.11 20130
91558.58 438200.57 0.61 3392
91558.60 438200.90 0.99 3392
91558.63 438201.19 1.23 3392
91558.74 438201.58 0.55 10328
91558.78 438201.88 0.58 10328
91558.97 438204.89 4.29 -1
91560.30 438211.20 -0.92 -1
91560.32 438211.50 -0.56 -1
91560.42 438212.15 -0.56 -1
91560.44 438212.46 -0.25 20295
91559.68 438212.22 9.92 3231
91559.78 438212.85 9.86 58
91560.21 438213.58 5.40 -1
91560.24 438214.18 6.23 -1
91561.09 438217.02 0.39 -1
91561.76 438221.05 -0.52 -1
91561.86 438221.74 -0.50 -1
91561.97 438222.41 -0.54 -1
91562.71 438227.62 0.06 -1
91563.28 438230.78 -1.18 10451
91563.39 438231.74 -0.74 3340
91563.43 438232.29 -0.07 3340
91563.47 438232.87 0.58 3340
91563.58 438233.56 0.47 -1
91563.68 438234.22 0.58 -1
91563.68 438234.99 2.16 2781
91563.75 438235.62 2.50 147
91563.80 438236.20 3.06 147
91563.84 438236.76 3.64 147
91563.89 438237.35 4.29 147
91563.93 438237.93 4.91 147
91563.97 438238.49 5.47 147
91564.01 438239.05 6.11 147
91564.06 438239.62 6.72 147
91564.17 438240.31 6.59 220
91564.27 438240.95 6.57 220
91564.37 438241.64 6.56 220
91564.46 438242.28 6.69 220
91564.64 438243.07 5.81 3032
91564.84 438243.89 4.83 3032
91565.03 438244.72 3.82 3032
91565.23 438245.55 2.84 3032
91565.06 438245.74 5.63 -1
91565.40 438246.33 2.09 3032
91565.07 438246.01 6.03 -1
91565.44 438246.66 2.17 3420
91565.14 438246.39 5.87 -1
91565.48 438246.99 2.32 -1
91565.14 438246.62 6.35 3315
91565.26 438246.83 5.08 -1
91565.71 438247.61 0.48 3032
91565.25 438247.07 5.77 -1
91565.78 438247.99 0.33 -1
91565.28 438247.35 5.98 3397
91565.51 438247.76 3.55 -1
91565.22 438247.48 7.11 -1
91565.39 438247.78 5.36 -1
91565.56 438248.08 3.61 -1
91565.68 438248.54 2.81 -1
91565.53 438248.53 4.98 258
91565.51 438248.74 5.72 -1
91565.71 438249.11 3.59 3329
91565.45 438248.87 6.83 -1
91565.61 438249.15 5.22 258
91565.55 438249.30 6.29 3315
91567.17 438256.64 -0.87 -1
91567.21 438257.21 -0.26 3357
91567.25 438257.76 0.45 10258
91567.28 438258.05 0.62 -1
91567.31 438258.34 0.82 -1
91567.35 438258.68 0.93 -1
91567.44 438259.09 0.59 10258
91567.48 438259.41 0.72 10258
91567.44 438259.82 2.09 277
91567.52 438260.42 2.33 3106
91567.59 438261.08 2.62 3106
91567.67 438261.70 2.91 3106
91567.73 438262.28 3.25 3106
91567.80 438262.90 3.57 3106
91567.39 438262.55 8.56 3248
91567.45 438262.90 8.51 3248
91567.55 438263.56 8.48 2990
91567.62 438264.16 8.82 2990
91567.68 438264.76 9.18 2990
91567.75 438265.36 9.51 194
91567.81 438265.93 9.87 194
91567.87 438266.53 10.31 194
91567.93 438267.12 10.74 194
91567.98 438267.67 11.19 194
91568.04 438268.24 11.62 194
91568.09 438268.81 12.10 194
91568.15 438269.39 12.53 194
91568.20 438269.94 12.97 194
91568.25 438270.53 13.44 194
91568.31 438271.09 13.90 194
91568.36 438271.64 14.33 194
91568.41 438272.21 14.78 194
91568.47 438272.78 15.22 194
91568.52 438273.34 15.67 194
91568.57 438273.89 16.08 194
91568.63 438274.48 16.55 194
91568.68 438275.04 17.00 194
91568.73 438275.58 17.44 194
91568.79 438276.14 17.87 194
91568.84 438276.70 18.32 194
91568.90 438277.27 18.74 194
91568.95 438277.81 19.15 194
91569.01 438278.40 19.60 194
91569.06 438278.95 20.05 194
91569.11 438279.49 20.46 194
91569.16 438280.05 20.90 194
91569.21 438280.59 21.42 194
91549.59 438143.54 11.34 239
91549.69 438144.16 11.35 239
91549.79 438144.80 11.36 239
91549.88 438145.44 11.38 239
91549.97 438146.09 11.44 239
91550.07 438146.70 11.43 239
91550.25 438146.91 9.37 -1
91550.17 438147.36 11.41 239
91550.26 438148.01 11.45 239
91550.36 438148.62 11.45 239
91550.45 438149.26 11.46 239
91550.55 438149.90 11.42 239
91550.65 438150.54 11.43 239
91550.74 438151.16 11.42 239
91550.84 438151.82 11.43 239
91550.94 438152.47 11.44 239
91551.03 438153.08 11.44 239
91551.13 438153.72 11.46 239
91551.22 438154.36 11.48 239
91551.31 438155.01 11.62 3598
91551.39 438155.63 11.77 3598
91551.59 438155.87 9.53 290
91551.72 438156.49 8.97 -1
91551.80 438157.14 9.29 -1
91551.90 438157.76 9.26 -1
91552.04 438158.40 8.58 242
91552.14 438159.04 8.57 242
91552.23 438159.66 8.56 242
91552.28 438159.96 8.53 242
91552.32 438160.66 9.46 290
91552.55 438160.55 6.03 3389
91552.85 438161.10 3.01 -1
91553.16 438161.30 -0.98 3389
91553.61 438167.62 6.19 -1
91553.58 438168.62 8.70 -1
91553.72 438168.59 6.70 3349
91553.80 438168.88 6.19 3349
91553.94 438169.55 5.65 3349
91554.18 438170.50 4.29 3349
91553.85 438170.85 9.61 -1
91553.90 438171.17 9.63 -1
91554.28 438171.13 4.14 -1
91554.16 438171.47 6.61 -1
91554.43 438171.44 2.76 3349
91554.85 438172.42 -1.04 -1
91554.40 438172.76 5.95 20678
91554.89 438172.73 -0.98 48833
91554.94 438173.05 -0.95 48833
91554.43 438173.39 6.88 -1
91554.99 438173.36 -0.93 48833
91554.71 438174.70 5.84 -1
91555.24 438175.33 -0.26 264
91555.34 438175.99 -0.27 264
91555.44 438176.65 -0.33 264
91555.73 438178.29 -0.87 20207
91555.83 438178.95 -0.86 20207
91555.94 438179.61 -1.08 20207
91556.41 438185.98 5.79 3172
91556.48 438187.81 8.76 -1
91557.53 438192.19 3.33 -1
91557.58 438192.52 3.33 -1
91557.46 438192.76 5.48 10274
91557.53 438193.08 5.25 10274
91557.68 438193.17 3.35 -1
91557.53 438193.37 5.80 -1
91557.85 438194.46 3.64 -1
91557.74 438194.67 5.64 -1
91557.88 438194.76 3.83 -1
91557.87 438195.07 4.64 -1
91557.67 438195.22 7.79 -1
91558.10 438195.48 2.38 -1
91558.04 438195.74 3.67 -1
91558.16 438196.09 2.75 -1
91558.00 438196.60 6.08 -1
91558.74 438197.97 -1.38 20649
91558.75 438198.55 -0.33 -1
91558.81 438198.88 -0.38 3392
91558.87 438199.24 -0.52 -1
91558.87 438199.52 0.07 3392
91558.84 438199.80 1.15 -1
91559.04 438199.95 -1.36 -1
91558.98 438200.19 -0.08 20130
91558.94 438200.44 1.06 -1
91559.08 438200.54 -0.62 -1
91559.08 438200.82 -0.14 -1
91559.14 438201.17 -0.17 20649
91559.21 438201.52 -0.40 -1
91559.68 438204.20 -1.31 -1
91559.33 438205.03 5.36 -1
91559.43 438205.42 4.76 3366
91559.49 438205.75 4.68 3366
91560.80 438212.03 -0.44 20295
91560.86 438212.65 0.08 -1
91560.86 438212.95 0.70 -1
91560.12 438212.43 9.98 3231
91560.60 438213.49 5.42 -1
91560.64 438214.05 6.17 -1
91561.43 438216.57 0.41 -1
91561.46 438216.88 0.56 -1
91562.17 438220.98 -0.58 -1
91562.26 438221.62 -0.55 -1
91563.00 438226.58 -0.38 -1
91563.06 438227.20 0.06 -1
91563.17 438227.87 0.01 -1
91563.68 438230.93 -0.67 10451
91563.76 438231.59 -0.37 3340
91563.83 438232.22 -0.11 -1
91563.87 438232.77 0.59 3430
91563.96 438233.42 0.72 -1
91563.96 438234.47 2.82 3419
91564.04 438234.83 2.57 3419
91564.13 438235.49 2.66 147
91564.18 438236.07 3.25 147
91564.22 438236.65 3.85 147
91564.26 438237.20 4.48 147
91564.31 438237.80 5.09 147
91564.35 438238.37 5.69 147
91564.39 438238.92 6.30 147
91564.46 438239.54 6.62 220
91564.56 438240.20 6.59 220
91564.67 438240.87 6.56 220
91564.76 438241.51 6.56 220
91564.87 438242.21 6.51 220
91565.07 438243.04 5.48 3032
91565.26 438243.84 4.52 3032
91565.46 438244.67 3.51 3032
91565.65 438245.49 2.59 3032
91565.74 438245.89 2.21 3032
91565.60 438245.91 4.11 -1
91565.52 438245.99 5.51 -1
91566.00 438246.82 0.51 -1
91565.65 438246.46 4.68 258
91565.56 438246.57 6.05 -1
91565.82 438247.01 3.43 -1
91566.10 438247.50 0.49 -1
91565.60 438246.88 6.28 3315
91565.85 438247.32 3.69 -1
91565.56 438247.05 7.15 -1
91565.71 438247.31 5.62 -1
91565.69 438247.54 6.35 3315
91565.92 438247.95 3.95 -1
91565.68 438247.75 6.94 3329
91565.89 438248.12 4.78 -1
91565.80 438248.21 6.19 -1
91566.16 438248.85 2.49 -1
91565.91 438248.62 5.61 -1
91566.08 438248.93 3.81 3329
91566.01 438249.07 5.08 -1
91565.94 438249.19 6.34 3315
91567.59 438256.82 -0.59 3357
91567.69 438257.74 -0.01 -1
91567.75 438258.11 -0.06 3357
91567.90 438258.63 -1.05 -1
91567.80 438258.68 0.40 10258
91567.94 438258.95 -1.00 -1
91567.92 438259.15 -0.35 -1
91567.94 438259.68 0.54 3357
91567.89 438260.06 2.12 -1
91567.94 438260.40 2.08 277
91568.01 438261.00 2.34 3106
91568.09 438261.65 2.63 3106
91568.16 438262.28 2.93 3106
91568.23 438262.86 3.27 3106
91568.30 438263.48 3.56 3106
91567.89 438263.12 8.58 3248
91567.95 438263.48 8.51 3248
91568.05 438264.13 8.48 2990
91568.11 438264.73 8.83 2990
91568.18 438265.34 9.16 2990
91568.25 438265.94 9.53 194
91568.31 438266.51 9.85 194
91568.37 438267.12 10.28 194
91568.42 438267.69 10.76 194
91568.48 438268.25 11.17 194
91568.53 438268.82 11.64 194
91568.58 438269.38 12.12 194
91568.64 438269.96 12.54 194
91568.69 438270.51 12.97 194
91568.75 438271.10 13.44 194
91568.81 438271.68 13.87 194
91568.86 438272.22 14.31 194
91568.91 438272.78 14.79 194
91568.96 438273.36 15.21 194
91569.01 438273.92 15.68 194
91569.07 438274.46 16.11 194
91569.12 438275.05 16.55 194
91569.17 438275.61 17.02 194
91569.23 438276.15 17.43 194
91569.28 438276.72 17.87 194
91569.34 438277.29 18.28 194
91569.39 438277.84 18.74 194
91569.44 438278.38 19.15 194
91569.49 438278.96 19.64 194
91569.55 438279.52 20.05 194
91569.60 438280.06 20.46 194
91549.90 438143.09 11.35 239
91550.00 438143.74 11.34 239
91550.09 438144.38 11.35 239
91550.18 438145.00 11.37 239
91550.28 438145.66 11.40 239
91550.38 438146.31 11.43 239
91550.47 438146.92 11.42 239
91550.57 438147.56 11.41 239
91550.66 438148.21 11.46 239
91550.76 438148.85 11.45 239
91550.85 438149.46 11.47 239
91550.95 438150.13 11.45 239
91551.05 438150.76 11.41 239
91551.14 438151.38 11.42 239
91551.24 438152.02 11.43 239
91551.34 438152.66 11.45 239
91551.43 438153.31 11.52 239
91551.53 438153.92 11.47 239
91551.63 438154.58 11.46 239
91551.72 438155.22 11.47 239
91551.80 438155.85 11.74 3598
91552.05 438156.39 9.41 290
91552.16 438157.01 9.10 -1
91552.29 438157.64 8.72 242
91552.39 438158.26 8.59 242
91552.49 438158.93 8.58 242
91552.59 438159.56 8.57 242
91552.68 438160.18 8.56 242
91552.73 438160.49 8.53 242
91552.77 438161.19 9.45 290
91552.91 438161.12 7.30 3389
91553.05 438161.39 5.98 -1
91553.30 438161.63 3.01 -1
91553.62 438161.83 -0.98 3389
91554.08 438168.80 7.20 3349
91554.15 438169.12 6.88 3349
91554.11 438169.78 8.92 -1
91554.31 438169.75 6.03 3349
91554.40 438170.08 5.48 3349
91554.25 438170.42 8.26 -1
91554.43 438170.40 5.78 -1
91554.26 438170.76 8.90 20678
91554.54 438170.72 4.96 3349
91554.40 438171.06 7.52 -1
91554.43 438171.68 8.45 -1
91554.50 438172.01 8.23 -1
91554.61 438172.00 6.67 -1
91554.59 438172.35 7.64 -1
91554.75 438172.65 6.06 20678
91555.26 438172.61 -1.23 -1
91555.30 438172.96 -1.02 -1
91555.03 438173.61 4.14 -1
91555.57 438174.91 -0.63 -1
91555.64 438175.56 -0.25 264
91555.74 438176.19 -0.28 264
91555.98 438177.54 -0.85 48833
91556.08 438178.17 -0.82 20207
91556.18 438178.83 -0.87 20207
91556.29 438179.48 -1.04 20207
91556.76 438185.86 5.87 3172
91557.74 438191.12 3.25 10375
91557.82 438191.74 3.48 10375
91557.92 438192.39 3.45 10375
91557.95 438192.71 3.71 10375
91557.89 438193.57 6.35 10375
91557.87 438193.83 7.23 10375
91558.01 438193.91 5.47 10375
91557.87 438194.13 7.77 10375
91558.21 438194.32 3.53 10375
91557.96 438194.79 7.94 10375
91558.26 438194.97 4.11 10375
91558.26 438195.25 4.72 10375
91558.44 438195.36 2.46 10375
91558.34 438195.61 4.40 10375
91558.25 438195.83 6.11 10375
91558.85 438196.21 -1.49 -1
91558.48 438196.26 3.85 10375
91558.49 438196.54 4.32 10375
91559.15 438198.19 -1.49 -1
91559.10 438198.45 -0.21 -1
91559.11 438198.73 0.24 10328
91559.11 438199.02 0.84 -1
91559.26 438199.12 -0.98 -1
91559.20 438199.38 0.31 10328
91559.20 438199.70 0.95 -1
91559.35 438199.80 -0.87 -1
91559.32 438200.06 0.06 20130
91559.27 438200.33 1.39 -1
91559.44 438200.45 -0.69 -1
91559.44 438200.74 -0.20 20649
91559.46 438201.03 0.20 10328
91559.51 438201.35 0.14 10328
91559.58 438202.00 0.58 20130
91559.97 438204.03 -0.53 -1
91559.42 438204.45 7.95 -1
91559.78 438204.75 3.63 50445
91559.81 438205.05 3.83 -1
91559.57 438205.11 7.34 34034
91559.84 438205.62 4.55 3366
91560.34 438206.36 -0.86 -1
91560.23 438207.40 2.92 10402
91560.58 438207.99 -0.73 50021
91561.15 438211.93 -0.42 20295
91561.25 438212.57 -0.44 20295
91560.52 438212.66 9.97 3231
91560.94 438213.64 6.22 -1
91561.76 438216.17 0.06 -1
91561.80 438216.50 0.16 -1
91562.58 438221.21 -0.67 -1
91562.67 438221.85 -0.69 -1
91563.41 438227.07 0.04 -1
91563.52 438227.75 0.00 -1
91563.98 438230.50 -0.58 3430
91564.05 438231.11 -0.34 3430
91564.13 438231.75 -0.12 3340
91564.22 438232.40 0.00 -1
91564.29 438233.03 0.32 147
91564.34 438233.60 0.85 147
91564.61 438234.53 -0.89 3031
91564.52 438234.66 0.60 3031
91564.43 438235.04 2.72 3419
91564.49 438235.63 3.07 147
91564.53 438236.22 3.72 147
91564.57 438236.80 4.35 147
91564.62 438237.36 4.92 147
91564.66 438237.93 5.54 147
91564.70 438238.50 6.16 147
91564.75 438239.08 6.73 147
91564.86 438239.74 6.59 220
91564.97 438240.43 6.57 220
91565.07 438241.09 6.56 220
91565.15 438241.71 6.69 262
91565.35 438242.54 5.67 262
91565.51 438243.30 5.08 262
91565.74 438244.18 3.75 262
91565.92 438244.98 2.82 262
91566.01 438245.39 2.43 262
91565.86 438245.39 4.57 258
91565.82 438245.56 5.46 262
91566.14 438246.10 2.15 262
91565.86 438245.89 5.56 262
91566.19 438246.46 2.15 262
91565.92 438246.22 5.50 262
91566.24 438246.77 2.20 262
91565.98 438246.57 5.33 262
91566.13 438246.82 3.85 262
91566.45 438247.38 0.49 262
91566.19 438247.17 3.68 262
91566.54 438247.78 0.06 262
91566.26 438247.56 3.49 262
91566.07 438247.47 6.00 262
91566.31 438247.89 3.52 262
91566.43 438248.09 2.36 262
91566.09 438247.75 6.31 262
91566.30 438248.12 4.12 262
91566.29 438248.34 4.84 262
91566.51 438248.73 2.57 262
91566.19 438248.42 6.30 262
91566.46 438248.88 3.62 262
91566.31 438248.86 5.54 258
91566.49 438249.17 3.71 262
91566.36 438249.44 6.08 262
91568.09 438257.96 0.03 -1
91568.11 438258.24 0.33 10258
91568.16 438258.58 0.34 10258
91568.23 438258.97 0.09 3357
91568.27 438259.26 0.21 3357
91568.34 438259.64 0.00 -1
91568.45 438260.36 -0.03 -1
91568.49 438260.66 0.10 -1
91568.39 438260.94 2.08 277
91568.46 438261.55 2.34 3106
91568.54 438262.20 2.63 3106
91568.61 438262.81 2.96 3106
91568.68 438263.40 3.26 3106
91568.75 438264.02 3.57 3106
91568.33 438263.65 8.59 3248
91568.40 438264.03 8.50 3248
91568.50 438264.68 8.48 2990
91568.56 438265.28 8.86 2990
91568.63 438265.87 9.22 2990
91568.70 438266.49 9.52 194
91568.76 438267.06 9.88 194
91568.81 438267.66 10.36 194
91568.87 438268.24 10.78 194
91568.92 438268.78 11.25 194
91568.98 438269.36 11.68 194
91569.03 438269.93 12.13 194
91569.08 438270.49 12.63 194
91569.14 438271.05 13.01 194
91569.19 438271.65 13.47 194
91569.25 438272.21 13.93 194
91569.30 438272.76 14.37 194
91569.35 438273.33 14.82 194
91569.40 438273.89 15.28 194
91569.46 438274.46 15.70 194
91569.51 438275.00 16.13 194
91569.57 438275.59 16.59 194
91569.62 438276.15 17.04 194
91569.67 438276.70 17.45 194
91569.73 438277.26 17.90 194
91569.78 438277.82 18.32 194
91569.83 438278.38 18.76 194
91569.89 438278.93 19.18 194
91569.94 438279.51 19.63 194
91569.98 438280.04 20.20 194
91550.27 438143.64 11.35 239
91550.37 438144.28 11.36 239
91550.47 438144.92 11.37 239
91550.56 438145.54 11.40 239
91550.66 438146.21 11.43 239
91550.75 438146.84 11.44 239
91550.85 438147.47 11.44 239
91550.94 438148.11 11.46 239
91551.04 438148.74 11.46 239
91551.14 438149.38 11.46 239
91551.23 438150.00 11.45 239
91551.33 438150.67 11.43 239
91551.43 438151.30 11.42 239
91551.52 438151.92 11.43 239
91551.62 438152.56 11.44 239
91551.71 438153.20 11.44 239
91551.75 438153.89 12.43 -1
91551.90 438154.46 11.46 239
91552.00 438155.12 11.48 239
91552.10 438155.76 11.51 239
91552.18 438156.38 11.74 3598
91552.29 438156.64 10.70 -1
91552.47 438156.90 8.78 -1
91552.57 438157.54 8.61 242
91552.67 438158.18 8.60 242
91552.77 438158.79 8.58 242
91552.87 438159.47 8.58 242
91552.97 438160.11 8.57 242
91553.06 438160.73 8.57 242
91553.10 438161.40 9.43 290
91553.37 438161.62 6.06 3389
91553.43 438161.94 5.91 -1
91553.61 438161.86 3.30 3389
91553.84 438162.11 0.60 3389
91554.14 438168.44 9.81 -1
91554.24 438169.07 9.70 -1
91554.45 438169.04 6.78 -1
91554.53 438169.34 6.26 -1
91554.50 438169.98 7.95 -1
91554.63 438170.31 6.93 -1
91554.53 438170.65 9.05 20678
91554.64 438170.64 7.47 -1
91554.63 438170.96 8.22 -1
91554.77 438171.60 7.61 20678
91554.86 438171.59 6.33 -1
91554.76 438172.23 9.16 -1
91555.10 438172.21 4.34 -1
91554.85 438172.90 9.34 -1
91555.06 438173.19 6.95 -1
91555.83 438174.81 -0.33 -1
91555.92 438175.46 -0.26 264
91556.02 438176.11 -0.28 264
91556.26 438177.43 -0.85 48833
91556.40 438178.09 -1.45 -1
91556.45 438178.72 -0.82 20207
91556.89 438181.33 -1.39 20207
91557.03 438185.72 5.98 3172
91557.14 438186.40 5.81 -1
91558.11 438191.66 3.35 -1
91558.28 438192.93 3.69 -1
91558.10 438193.42 7.31 -1
91558.22 438193.79 6.41 -1
91558.39 438193.89 4.20 -1
91558.50 438194.25 3.38 -1
91558.29 438194.40 6.70 -1
91558.41 438194.77 5.77 -1
91558.31 438195.01 7.62 -1
91558.79 438195.61 2.24 -1
91558.83 438195.91 2.37 -1
91558.76 438196.18 3.89 -1
91558.93 438197.14 3.53 -1
91559.35 438198.31 0.17 10328
91559.51 438198.73 -1.21 3272
91559.52 438199.02 -0.69 20649
91559.45 438199.26 0.69 -1
91559.49 438199.57 0.88 -1
91559.68 438199.71 -1.51 -1
91559.58 438199.94 0.34 -1
91559.60 438200.26 0.78 3392
91559.63 438200.55 1.01 3392
91559.82 438200.69 -1.37 3272
91559.82 438201.00 -0.67 -1
91559.81 438201.56 0.60 20130
91559.90 438203.36 3.13 10402
91560.14 438203.56 0.19 -1
91560.25 438203.65 -1.13 -1
91560.21 438203.89 -0.08 -1
91560.02 438204.31 3.41 -1
91559.84 438204.46 6.35 -1
91559.85 438204.73 6.78 -1
91559.91 438205.08 6.67 -1
91560.11 438205.26 4.22 3366
91559.98 438205.40 6.36 -1
91560.15 438205.56 4.27 3366
91560.20 438205.88 4.28 3366
91559.98 438205.95 7.44 -1
91560.25 438206.78 5.50 3451
91560.46 438206.97 2.97 10402
91560.85 438207.60 -1.17 -1
91560.86 438207.90 -0.64 50021
91561.01 438208.59 -1.34 -1
91561.76 438214.38 0.41 -1
91562.09 438216.12 -0.54 -1
91562.87 438221.12 -0.88 -1
91563.59 438226.05 -0.51 -1
91563.75 438227.31 -0.04 -1
91564.22 438230.07 -0.73 3430
91564.29 438230.70 -0.40 3430
91564.36 438231.32 -0.07 3340
91564.45 438231.95 0.02 -1
91564.55 438232.65 0.05 147
91564.66 438233.33 -0.05 50024
91564.53 438234.15 3.55 3419
91564.61 438234.53 3.27 3419
91564.74 438235.25 2.89 147
91564.78 438235.80 3.51 147
91564.82 438236.37 4.15 147
91564.87 438236.95 4.76 147
91564.91 438237.52 5.36 147
91564.95 438238.08 5.93 147
91564.99 438238.67 6.61 147
91565.09 438239.33 6.61 220
91565.19 438239.97 6.59 220
91565.29 438240.63 6.56 220
91565.39 438241.30 6.57 220
91565.54 438242.05 6.08 3032
91565.66 438242.72 5.82 3420
91565.83 438243.51 5.22 3420
91565.97 438244.26 4.74 3420
91566.23 438244.94 2.61 3032
91566.13 438245.26 4.59 -1
91566.12 438245.48 5.28 -1
91566.25 438245.71 3.90 3420
91566.61 438246.32 0.20 -1
91566.48 438246.36 2.08 -1
91566.24 438246.19 5.03 258
91566.70 438246.97 0.36 3032
91566.34 438246.62 4.59 -1
91566.59 438247.05 2.00 -1
91566.38 438246.92 4.67 -1
91566.20 438246.85 7.07 -1
91566.41 438247.22 4.83 -1
91566.63 438247.59 2.65 3420
91566.42 438247.46 5.30 258
91566.66 438247.89 2.78 -1
91566.37 438247.63 6.37 3315
91566.51 438247.88 4.92 -1
91566.64 438248.10 3.61 -1
91566.48 438248.08 5.72 3397
91566.79 438248.63 2.53 -1
91566.62 438248.57 4.78 -1
91566.55 438248.70 6.03 -1
91566.72 438249.23 4.84 3397
91566.79 438249.59 4.62 3397
91568.43 438258.47 0.40 10258
91568.48 438258.81 0.39 10258
91568.53 438259.15 0.43 10258
91568.73 438259.77 -1.04 -1
91568.80 438260.87 0.35 -1
91568.67 438260.84 2.11 -1
91568.73 438261.20 2.08 277
91568.80 438261.82 2.29 3106
91568.88 438262.45 2.55 3106
91568.95 438263.07 2.86 3106
91569.02 438263.68 3.19 3106
91569.09 438264.26 3.52 3106
91569.15 438264.90 3.90 3106
91568.78 438264.61 8.50 3248
91568.88 438265.26 8.50 2990
91568.94 438265.84 8.92 2990
91569.00 438266.44 9.30 267
91569.07 438267.04 9.61 194
91569.13 438267.61 10.00 194
91569.19 438268.21 10.44 194
91569.24 438268.79 10.88 194
91569.29 438269.34 11.34 194
91569.35 438269.91 11.80 194
91569.40 438270.48 12.23 194
91569.46 438271.06 12.67 194
91569.51 438271.61 13.09 194
91569.57 438272.19 13.59 194
91569.62 438272.76 14.04 194
91569.67 438273.31 14.48 194
91569.72 438273.87 14.92 194
91569.78 438274.44 15.38 194
91569.83 438275.01 15.82 194
91569.88 438275.55 16.24 194
91569.94 438276.14 16.68 194
91569.99 438276.70 17.14 194
91570.05 438277.25 17.55 194
91570.10 438277.81 18.00 194
91570.15 438278.37 18.42 194
91570.21 438278.93 18.86 194
91570.26 438279.47 19.27 194
91550.54 438143.22 11.34 239
91550.63 438143.84 11.34 239
91550.73 438144.51 11.42 239
91550.83 438145.15 11.40 239
91550.92 438145.76 11.40 239
91551.02 438146.41 11.43 239
91551.11 438147.05 11.44 239
91551.21 438147.69 11.44 239
91551.30 438148.30 11.45 239
91551.40 438148.97 11.46 239
91551.50 438149.61 11.45 239
91551.59 438150.22 11.46 239
91551.69 438150.87 11.46 239
91551.79 438151.50 11.42 239
91551.88 438152.14 11.43 239
91551.98 438152.76 11.43 239
91552.01 438153.47 12.46 -1
91552.10 438154.11 12.54 -1
91552.22 438154.38 11.50 239
91552.31 438154.99 11.46 239
91552.41 438155.65 11.46 239
91552.50 438156.30 11.56 3598
91552.59 438156.92 11.74 3598
91552.70 438157.18 10.71 -1
91552.92 438157.04 7.28 -1
91552.91 438157.78 8.98 -1
91553.03 438158.41 8.60 242
91553.13 438159.02 8.60 242
91553.23 438159.67 8.59 242
91553.31 438160.31 8.73 -1
91553.42 438160.95 8.58 242
91553.46 438161.60 9.42 290
91553.76 438162.18 6.49 -1
91553.98 438162.42 3.85 3389
91554.10 438162.72 2.87 -1
91554.58 438168.97 9.42 -1
91554.80 438169.59 7.63 3349
91554.73 438169.91 9.23 -1
91554.88 438170.52 8.42 -1
91555.00 438171.19 8.15 20678
91555.07 438172.15 9.21 -1
91555.13 438172.45 8.98 -1
91555.47 438173.09 5.71 -1
91555.57 438173.43 5.00 20678
91555.60 438174.07 5.95 3186
91555.62 438174.38 6.22 -1
91556.19 438175.01 -0.27 264
91556.29 438175.69 -0.28 264
91556.55 438177.30 -0.50 20207
91556.64 438177.98 -0.40 264
91556.82 438178.95 -0.82 20207
91557.31 438181.89 -1.39 20207
91558.37 438191.21 3.44 -1
91558.55 438193.40 5.56 10274
91558.83 438194.15 3.21 -1
91559.02 438194.86 2.08 -1
91558.92 438195.08 4.02 -1
91559.11 438195.49 2.21 -1
91559.14 438195.81 2.43 -1
91559.09 438196.09 3.75 -1
91559.09 438196.37 4.28 -1
91559.51 438196.63 -0.97 -1
91559.67 438197.63 -1.13 20649
91559.72 438198.55 0.15 10328
91559.78 438198.88 0.04 3392
91559.76 438199.17 0.88 -1
91559.95 438199.30 -1.53 3272
91559.84 438199.51 0.51 3392
91559.98 438199.62 -1.30 -1
91559.96 438199.87 -0.35 20649
91559.91 438200.13 0.79 3392
91560.09 438200.26 -1.39 3272
91559.96 438200.47 0.83 -1
91560.08 438200.55 -0.62 -1
91560.01 438200.81 0.86 -1
91560.09 438201.14 0.46 20130
91560.19 438201.80 0.41 20649
91560.48 438203.48 -0.06 -1
91560.37 438203.68 1.90 -1
91560.58 438203.85 -0.63 -1
91560.36 438204.23 3.13 10402
91560.69 438204.50 -0.89 -1
91560.34 438204.49 4.06 3366
91560.04 438204.53 8.24 -1
91560.39 438204.83 3.99 3366
91560.15 438204.92 7.55 -1
91560.39 438205.13 4.69 3567
91560.85 438205.52 -0.85 -1
91560.48 438205.47 4.14 3366
91560.44 438205.73 5.24 -1
91560.16 438205.75 9.14 3429
91560.47 438206.03 5.44 -1
91561.05 438206.82 -0.94 -1
91560.77 438206.84 2.99 10402
91560.68 438207.06 4.73 -1
91560.68 438207.34 5.37 3429
91560.99 438208.19 2.83 10402
91562.16 438214.65 0.13 -1
91562.18 438214.94 0.41 -1
91562.24 438215.31 0.31 -1
91562.38 438215.72 -0.78 -1
91562.41 438216.28 0.01 -1
91562.72 438219.36 2.25 -1
91563.91 438225.95 -0.47 -1
91564.52 438229.67 -1.04 3430
91564.57 438230.26 -0.52 3430
91564.65 438230.93 -0.31 3340
91564.72 438231.54 0.07 3430
91564.81 438232.18 0.12 147
91564.92 438232.86 0.04 50024
91565.17 438234.03 -1.01 3031
91564.81 438233.99 3.95 3419
91564.96 438234.73 3.46 3419
91565.07 438235.41 3.36 147
91565.11 438235.98 4.01 147
91565.15 438236.52 4.62 147
91565.19 438237.13 5.23 147
91565.24 438237.71 5.83 147
91565.28 438238.25 6.44 147
91565.36 438238.89 6.63 220
91565.47 438239.56 6.59 220
91565.57 438240.23 6.57 220
91565.66 438240.86 6.57 220
91565.79 438241.59 6.32 3032
91565.97 438242.39 5.51 3032
91566.03 438242.96 5.93 3420
91566.18 438243.71 5.42 3420
91566.33 438244.46 4.90 3420
91566.65 438245.26 2.08 3032
91566.69 438245.58 2.15 -1
91566.51 438245.50 4.57 -1
91566.61 438245.92 4.00 3420
91566.83 438246.29 1.80 -1
91566.55 438246.06 5.22 258
91566.87 438246.61 1.91 -1
91566.56 438246.35 5.59 -1
91566.92 438246.96 1.95 -1
91566.72 438246.85 4.45 -1
91566.98 438247.30 1.79 -1
91566.87 438247.37 3.46 -1
91566.68 438247.28 5.92 -1
91566.90 438247.67 3.65 -1
91566.68 438247.53 6.40 3315
91566.86 438247.83 4.63 -1
91566.74 438247.85 6.34 3315
91566.88 438248.10 4.88 3329
91567.04 438248.39 3.21 -1
91566.92 438248.67 5.60 -1
91567.02 438249.10 4.99 3397
91569.00 438259.32 -1.01 -1
91569.10 438260.00 -0.99 -1
91569.17 438261.08 0.36 -1
91569.09 438261.41 2.14 -1
91569.15 438261.78 2.08 277
91569.23 438262.38 2.32 3106
91569.30 438263.01 2.59 3106
91569.37 438263.64 2.89 3106
91569.44 438264.25 3.24 3106
91569.51 438264.83 3.57 3106
91569.10 438264.49 8.57 3248
91569.15 438264.81 8.53 3248
91569.25 438265.50 8.50 2990
91569.32 438266.07 8.80 2990
91569.39 438266.70 9.16 267
91569.46 438267.30 9.52 194
91569.52 438267.88 9.83 194
91569.58 438268.46 10.23 194
91569.63 438269.03 10.72 194
91569.66 438269.55 11.46 267
91569.74 438270.16 11.62 194
91569.79 438270.75 12.09 194
91569.85 438271.33 12.51 194
91569.90 438271.88 12.95 194
91569.95 438272.44 13.44 194
91570.01 438273.00 13.88 194
91570.06 438273.58 14.31 194
91570.11 438274.12 14.77 194
91570.17 438274.71 15.22 194
91570.22 438275.28 15.65 194
91570.27 438275.82 16.08 194
91570.33 438276.39 16.52 194
91570.38 438276.95 16.97 194
91570.43 438277.51 17.41 194
91570.49 438278.07 17.80 194
91570.54 438278.65 18.28 194
91570.60 438279.21 18.70 194
91550.86 438143.16 11.35 239
91550.96 438143.80 11.37 239
91551.05 438144.42 11.37 239
91551.15 438145.09 11.40 239
91551.25 438145.73 11.40 239
91551.34 438146.34 11.44 239
91551.43 438146.99 11.44 239
91551.53 438147.63 11.43 239
91551.63 438148.27 11.44 239
91551.72 438148.88 11.46 239
91551.82 438149.55 11.46 239
91551.92 438150.19 11.45 239
91552.01 438150.81 11.46 239
91552.11 438151.44 11.45 239
91552.21 438152.08 11.43 239
91552.30 438152.72 11.44 239
91552.33 438153.39 12.50 -1
91552.43 438154.05 12.41 -1
91552.55 438154.67 12.07 -1
91552.69 438155.26 11.45 239
91552.78 438155.90 11.45 239
91552.88 438156.54 11.48 239
91552.96 438157.19 11.74 3598
91553.20 438157.71 9.40 -1
91553.36 438158.34 8.61 242
91553.45 438158.99 8.60 242
91553.55 438159.61 8.58 242
91553.64 438160.25 8.76 -1
91553.69 438160.60 8.75 -1
91553.74 438160.89 8.65 242
91553.79 438161.56 9.29 -1
91553.88 438161.86 8.70 -1
91553.93 438162.52 9.40 290
91554.17 438162.42 5.95 3389
91554.42 438162.67 2.92 3389
91554.78 438163.21 -1.00 3389
91554.95 438169.56 10.13 -1
91554.99 438169.86 10.18 -1
91555.15 438169.84 7.94 3349
91555.21 438170.18 7.75 -1
91555.19 438170.49 8.71 -1
91555.17 438170.81 9.64 -1
91555.16 438171.12 10.50 -1
91555.45 438172.09 8.46 -1
91555.73 438172.72 5.85 20678
91555.80 438173.02 5.55 20678
91555.84 438173.34 5.66 -1
91556.52 438174.66 -1.01 -1
91556.57 438175.29 -0.41 -1
91556.70 438175.95 -0.76 -1
91556.86 438177.26 -0.31 264
91556.96 438177.89 -0.35 264
91557.07 438178.58 -0.48 264
91559.08 438193.45 2.95 -1
91559.16 438194.10 3.13 -1
91559.01 438194.60 6.26 -1
91559.12 438195.26 6.16 -1
91559.48 438195.75 2.21 -1
91559.83 438196.57 -0.93 -1
91559.96 438197.25 -1.37 -1
91560.04 438197.89 -1.01 20649
91560.14 438199.15 0.23 3392
91560.21 438199.48 -0.03 -1
91560.26 438199.82 -0.08 10328
91560.22 438200.08 1.07 -1
91560.42 438200.23 -1.49 -1
91560.35 438200.45 0.01 20649
91560.36 438200.75 0.43 20130
91560.44 438201.10 0.16 20649
91560.84 438203.13 -1.10 -1
91560.61 438203.26 2.35 -1
91560.40 438203.38 5.45 3567
91560.84 438203.74 0.04 -1
91560.63 438203.85 3.26 10402
91560.89 438204.07 0.11 -1
91560.74 438204.23 2.55 -1
91560.37 438204.20 7.68 34034
91560.83 438204.60 1.99 -1
91560.61 438204.95 5.85 -1
91560.70 438205.32 5.35 -1
91560.81 438205.41 4.03 3451
91560.49 438205.43 8.53 -1
91560.84 438206.01 4.87 3451
91560.50 438206.00 9.63 3677
91560.99 438206.70 4.31 -1
91561.04 438207.29 4.84 3429
91561.05 438207.60 5.27 -1
91561.31 438208.13 2.82 3429
91562.51 438214.89 0.30 -1
91562.64 438215.32 -0.58 -1
91562.70 438215.64 -0.67 -1
91562.90 438218.34 2.21 -1
91563.00 438219.25 2.76 -1
91564.29 438226.21 -0.51 -1
91564.79 438229.30 -1.07 3430
91564.84 438229.90 -0.50 10451
91564.91 438230.51 -0.21 -1
91565.00 438231.16 -0.07 3430
91565.09 438231.81 0.05 -1
91565.19 438232.47 0.13 -1
91565.33 438233.18 -0.34 -1
91565.30 438233.91 1.68 3474
91565.11 438233.91 4.30 3419
91565.25 438234.61 3.84 3419
91565.37 438235.32 3.55 147
91565.41 438235.89 4.18 147
91565.46 438236.47 4.79 147
91565.50 438237.02 5.38 147
91565.55 438237.62 6.01 147
91565.58 438238.19 6.67 147
91565.69 438238.83 6.61 220
91565.79 438239.50 6.58 220
91565.89 438240.16 6.58 220
91565.99 438240.83 6.56 220
91566.13 438241.55 6.07 3032
91566.33 438242.39 5.09 3032
91566.38 438242.97 5.62 -1
91566.46 438243.58 5.86 3420
91566.61 438244.34 5.30 3420
91566.76 438245.07 4.87 3420
91566.85 438245.49 4.41 -1
91567.12 438246.19 2.14 -1
91566.90 438246.29 5.42 258
91566.95 438246.64 5.41 258
91567.17 438247.02 3.14 -1
91567.10 438247.16 4.43 -1
91567.06 438247.31 5.39 -1
91567.08 438247.61 5.67 258
91567.23 438247.87 4.14 -1
91567.05 438247.79 6.48 -1
91567.27 438248.16 4.28 3329
91567.33 438248.52 4.14 -1
91567.25 438248.60 5.47 3397
91567.36 438249.07 4.85 -1
91569.44 438260.70 0.35 3357
91569.52 438261.31 0.61 3357
91569.59 438261.69 0.43 -1
91569.58 438262.40 2.09 277
91569.65 438263.00 2.39 3106
91569.72 438263.63 2.65 3106
91569.79 438264.25 2.96 3106
91569.86 438264.87 3.31 3106
91569.93 438265.45 3.63 3106
91569.52 438265.10 8.58 3248
91569.63 438265.80 8.49 3248
91569.72 438266.42 8.61 267
91569.77 438267.00 9.06 267
91569.84 438267.60 9.42 194
91569.91 438268.21 9.75 194
91569.96 438268.77 10.14 194
91569.97 438269.27 11.05 267
91570.06 438269.90 11.22 194
91570.12 438270.49 11.51 194
91570.18 438271.06 11.97 194
91570.24 438271.64 12.39 194
91570.29 438272.21 12.84 194
91570.34 438272.75 13.31 194
91570.39 438273.34 13.79 194
91570.45 438273.91 14.23 194
91570.50 438274.45 14.66 194
91570.55 438275.02 15.11 194
91570.61 438275.59 15.54 194
91570.66 438276.15 15.97 194
91570.71 438276.70 16.40 194
91570.77 438277.29 16.83 194
91570.83 438277.85 17.27 194
91570.87 438278.39 17.72 194
91570.93 438278.95 18.14 194
91551.15 438143.10 11.36 239
91551.25 438143.74 11.34 239
91551.34 438144.39 11.41 239
91551.44 438145.00 11.39 239
91551.54 438145.67 11.40 239
91551.63 438146.31 11.43 239
91551.73 438146.93 11.44 239
91551.82 438147.57 11.45 239
91551.92 438148.21 11.44 239
91552.01 438148.85 11.45 239
91552.11 438149.47 11.45 239
91552.21 438150.13 11.46 239
91552.30 438150.77 11.46 239
91552.40 438151.39 11.43 239
91552.50 438152.02 11.43 239
91552.59 438152.66 11.44 239
91552.63 438153.35 12.45 -1
91552.78 438153.93 11.50 239
91552.85 438154.61 12.03 -1
91552.98 438155.22 11.45 239
91553.07 438155.84 11.46 239
91553.17 438156.47 11.46 239
91553.26 438157.11 11.52 239
91553.34 438157.75 11.74 3598
91553.45 438158.03 10.76 -1
91553.59 438157.95 8.78 -1
91553.69 438158.60 8.61 242
91553.79 438159.24 8.61 242
91553.88 438159.88 8.77 -1
91553.97 438160.50 8.78 -1
91554.03 438161.19 9.37 290
91554.09 438161.85 10.02 -1
91554.23 438162.11 8.57 242
91554.26 438162.75 9.43 290
91554.55 438163.00 5.95 3389
91554.81 438163.25 2.95 3389
91554.92 438163.55 1.92 3389
91555.12 438163.82 -0.20 3389
91555.29 438164.43 -1.27 -1
91555.33 438165.10 -0.39 -1
91555.25 438168.83 8.54 -1
91555.37 438169.44 8.06 -1
91555.37 438170.13 9.54 20678
91555.44 438170.42 9.14 20678
91555.51 438170.77 8.95 -1
91555.76 438171.67 7.40 20678
91556.10 438173.30 6.05 -1
91556.13 438173.61 6.27 -1
91556.91 438175.25 -1.04 -1
91557.09 438176.54 -0.88 48833
91557.15 438177.19 -0.32 264
91557.20 438177.52 -0.31 264
91557.30 438178.16 -0.34 264
91557.56 438179.48 -1.22 3551
91558.06 438182.75 -1.35 20207
91558.76 438187.64 -0.79 -1
91559.50 438194.33 3.11 -1
91559.35 438194.87 6.20 -1
91560.07 438196.19 -0.92 -1
91560.18 438197.14 -0.55 -1
91560.28 438197.80 -0.48 3392
91560.40 438199.04 0.45 -1
91560.50 438199.42 -0.19 10328
91560.55 438199.76 -0.16 20649
91560.58 438200.07 0.03 20649
91560.62 438200.40 0.17 20649
91561.12 438203.09 -1.04 -1
91560.70 438203.31 5.22 -1
91561.21 438203.72 -0.96 -1
91560.88 438203.76 3.62 3366
91561.26 438204.07 -0.91 -1
91561.04 438204.18 2.29 -1
91560.89 438204.33 4.70 -1
91560.75 438204.50 7.10 -1
91561.09 438204.79 2.95 -1
91560.81 438204.84 6.90 -1
91560.94 438204.95 5.30 50445
91560.73 438205.03 8.49 -1
91560.82 438205.11 7.30 34034
91561.50 438205.70 -0.91 -1
91560.96 438205.51 6.23 50445
91561.21 438205.73 3.18 10402
91560.78 438205.64 9.03 -1
91561.30 438206.09 2.79 -1
91561.02 438206.14 6.82 3429
91561.24 438206.90 5.29 3429
91561.37 438207.29 4.30 3429
91561.34 438207.81 5.76 -1
91561.97 438208.69 -1.13 -1
91562.90 438215.48 0.28 -1
91562.95 438215.84 0.28 -1
91562.98 438217.19 2.81 -1
91563.11 438218.18 3.06 -1
91563.24 438218.62 2.10 -1
91563.29 438219.19 2.67 -1
91564.53 438225.86 -0.61 -1
91564.62 438226.49 -0.53 -1
91565.09 438229.50 -0.68 10451
91565.14 438230.10 -0.13 10451
91565.23 438230.76 -0.06 -1
91565.32 438231.38 0.07 3430
91565.42 438232.07 0.10 50024
91565.55 438232.78 -0.18 50024
91565.70 438233.76 -0.20 3031
91565.52 438233.76 2.30 147
91565.42 438234.13 4.41 3419
91565.57 438234.86 3.93 3419
91565.66 438235.49 4.00 147
91565.70 438236.09 4.63 147
91565.75 438236.66 5.25 147
91565.79 438237.22 5.83 147
91565.83 438237.79 6.45 147
91565.92 438238.43 6.62 220
91566.02 438239.09 6.61 220
91566.12 438239.74 6.57 220
91566.22 438240.42 6.57 220
91566.35 438241.13 6.30 3032
91566.54 438241.93 5.30 3032
91566.67 438242.64 5.03 -1
91566.72 438243.24 5.48 -1
91566.78 438243.83 5.94 3420
91566.92 438244.54 5.45 3420
91567.26 438246.13 4.11 -1
91567.32 438246.49 3.98 -1
91567.65 438247.53 1.62 -1
91567.51 438247.80 4.13 -1
91567.56 438248.12 4.14 3329
91567.46 438248.21 5.67 -1
91567.62 438248.96 5.04 -1
91569.75 438260.93 0.55 -1
91569.85 438261.58 0.57 3357
91569.90 438262.64 2.09 277
91569.98 438263.27 2.35 3106
91570.05 438263.88 2.59 3106
91570.13 438264.53 2.90 3106
91570.20 438265.14 3.25 3106
91570.26 438265.73 3.56 3106
91569.84 438265.33 8.60 3248
91569.91 438265.71 8.52 3248
91570.01 438266.39 8.49 2990
91570.07 438266.97 8.82 267
91570.14 438267.57 9.16 267
91570.21 438268.18 9.50 194
91570.27 438268.77 9.84 194
91570.21 438269.09 11.37 3455
91570.33 438269.82 11.23 267
91570.43 438270.49 11.23 194
91570.49 438271.05 11.65 194
91570.54 438271.62 12.09 194
91570.60 438272.20 12.52 194
91570.65 438272.76 12.99 194
91570.70 438273.31 13.42 194
91570.76 438273.90 13.91 194
91570.81 438274.47 14.35 194
91570.86 438275.01 14.78 194
91570.92 438275.58 15.22 194
91570.97 438276.15 15.65 194
91571.03 438276.72 16.08 194
91571.08 438277.25 16.52 194
91571.14 438277.84 16.96 194
91571.19 438278.41 17.40 194
91571.23 438278.92 17.94 194
91551.48 438143.68 11.36 239
91551.57 438144.32 11.40 239
91551.67 438144.95 11.39 239
91551.76 438145.57 11.40 239
91551.86 438146.25 11.44 239
91551.96 438146.89 11.44 239
91552.05 438147.50 11.44 239
91552.15 438148.14 11.45 239
91552.25 438148.78 11.44 239
91552.34 438149.42 11.45 239
91552.43 438150.03 11.45 239
91552.54 438150.70 11.46 239
91552.63 438151.34 11.43 239
91552.73 438151.95 11.42 239
91552.82 438152.59 11.44 239
91552.92 438153.24 11.45 239
91552.97 438153.56 11.45 239
91553.04 438154.19 11.78 -1
91553.16 438154.82 11.46 239
91553.25 438155.45 11.45 239
91553.35 438156.10 11.46 239
91553.44 438156.71 11.46 239
91553.54 438157.37 11.49 239
91553.62 438158.02 11.73 3598
91553.74 438158.30 10.73 -1
91553.87 438158.22 8.65 242
91553.92 438158.52 8.65 242
91554.02 438159.16 8.61 242
91554.11 438159.81 8.78 -1
91554.20 438160.46 8.78 -1
91554.25 438161.09 9.47 290
91554.30 438161.44 9.49 290
91554.29 438161.79 10.36 -1
91554.38 438162.08 9.66 -1
91554.51 438162.37 8.56 242
91554.54 438163.02 9.43 290
91554.83 438163.24 5.95 3389
91555.08 438163.50 2.95 3389
91555.20 438163.81 1.92 3389
91555.39 438164.07 -0.17 3389
91555.48 438164.73 -0.09 -1
91555.60 438165.36 -0.31 -1
91555.37 438168.78 10.09 -1
91555.61 438170.38 10.02 -1
91555.70 438170.70 9.46 -1
91556.31 438173.23 6.28 -1
91556.45 438173.57 5.03 -1
91556.42 438174.49 7.44 -1
91556.88 438176.75 5.81 -1
91556.94 438177.08 5.70 -1
91557.02 438177.43 5.33 10633
91557.11 438177.74 4.76 -1
91557.47 438177.78 -0.31 264
91557.20 438178.39 4.80 10633
91557.28 438179.66 6.32 10548
91557.75 438180.05 0.71 -1
91557.59 438180.66 4.19 3538
91557.65 438180.97 3.99 280
91557.95 438181.34 0.63 -1
91558.40 438183.35 -1.47 20207
91558.97 438187.58 -0.48 -1
91559.21 438188.60 -1.66 -1
91559.58 438194.79 6.17 -1
91560.34 438196.46 -0.88 -1
91560.45 438197.38 -0.48 -1
91560.55 438198.07 -0.45 10328
91560.85 438200.02 -0.42 10328
91560.89 438200.64 0.23 20649
91561.34 438203.02 -1.00 -1
91561.20 438203.48 1.97 -1
91560.99 438203.58 5.10 -1
91560.96 438203.84 6.02 -1
91561.22 438204.05 2.84 -1
91561.12 438204.26 4.68 -1
91561.12 438204.56 5.31 -1
91561.35 438204.76 2.50 -1
91561.17 438204.87 5.31 50445
91561.42 438205.08 2.34 -1
