x y z
512158.99 5259441.52 260
516686.74 5265460.09 353
515565.74 5258520.13 327
506805.04 5263086.14 30
517629.84 5258523.77 241
521988.42 5259973.24 0
510085.26 5266913.39 353
508021.39 5262168.38 82
509571.98 5264594.56 4
517920.87 5261392.29 339
521565.32 5261002.09 0
515684.67 5266912.40 138
517972.99 5263572.83 176
513532.75 5267671.10 19
519136.83 5260946.29 111
509134.52 5264183.56 1
522174.38 5260158.00 0
505766.50 5261667.53 96
521822.88 5265107.41 24
510251.51 5266032.89 164
511377.62 5262098.73 195
519888.82 5258770.59 174
508494.53 5262355.40 101
509347.59 5259937.30 163
516723.33 5259107.50 354
512207.31 5267304.66 92
510023.92 5261050.43 135
513420.01 5262195.66 189
508218.47 5268121.01 550
515281.06 5263094.97 655
521710.06 5259168.61 1
519411.07 5261468.48 172
517549.05 5266944.83 39
516867.52 5264747.23 371
507953.54 5265650.50 218
519241.40 5259500.86 120
514380.11 5263163.00 388
520283.69 5263500.80 60
507869.50 5265494.03 253
520941.81 5265100.11 0
521421.57 5265049.18 1
517167.84 5267644.99 8
517695.35 5264393.88 188
510437.34 5260446.12 172
517934.97 5260898.21 310
518508.98 5267389.36 0
509233.54 5268306.28 629
520973.87 5264886.98 0
511899.89 5262604.96 195
515709.01 5265061.37 383
518806.43 5262030.10 125
510590.64 5261438.57 92
515819.07 5263775.19 676
514723.39 5260782.26 318
520985.70 5260541.96 0
511599.86 5263402.14 272
508196.34 5262233.06 60
505815.73 5259267.45 129
520790.96 5262311.12 17
507116.50 5261401.83 140
516006.56 5259063.07 369
507381.82 5259150.27 340
515093.69 5260282.60 401
505711.57 5262353.75 81
513343.55 5263736.67 497
506899.13 5261670.75 121
507099.82 5261989.21 114
519199.10 5262656.54 112
507006.57 5265458.08 240
510197.28 5260137.17 199
512372.59 5264139.14 277
511870.96 5263945.98 200
505623.06 5260088.85 233
519766.14 5259622.60 82
508556.85 5267976.23 585
518218.19 5262759.36 169
511543.89 5263453.61 252
513983.45 5264581.51 420
511817.89 5264313.67 182
505533.58 5266572.04 135
505833.64 5260130.26 297
513765.81 5262724.53 273
516274.71 5262860.30 658
519167.45 5264363.63 98
513022.09 5262278.59 267
517236.71 5258848.68 233
510752.69 5259162.62 225
522345.39 5262150.42 13
522319.10 5258597.80 0
506710.19 5267971.11 265
510786.44 5263081.11 125
513477.57 5263645.39 545
509758.02 5260720.74 114
513707.40 5267109.82 0
506405.63 5264839.86 47
516614.20 5264962.95 427
519155.67 5267576.31 0
520870.70 5267789.57 36
509994.52 5258327.57 290
510258.38 5262364.92 40
516010.05 5258308.01 346
518132.33 5260805.08 278
514527.03 5266900.27 79
513887.95 5265948.00 205
509186.86 5266401.08 318
522362.66 5261430.59 0
521064.94 5265495.52 0
506121.33 5258704.21 227
505997.26 5263484.77 20
506308.69 5262348.63 156
511554.22 5267958.54 266
520526.30 5260867.36 45
505504.56 5259938.22 227
505808.36 5263909.43 4
506090.95 5268354.90 127
505135.24 5267129.41 97
511178.79 5264746.57 0
511353.16 5265608.23 4
508846.69 5265062.11 51
506314.46 5261047.63 190
511099.80 5261293.57 93
512951.13 5263742.23 423
509235.70 5266526.61 328
507831.59 5263012.83 30
508789.80 5263598.05 0
505599.48 5267822.17 119
516714.26 5264982.19 454
505469.63 5268221.91 109
514398.95 5265052.25 367
510946.85 5267393.63 284
521691.76 5262055.83 0
515008.75 5260639.91 406
516838.72 5261666.07 459
511925.16 5265533.07 7
511105.15 5263726.81 158
516574.49 5262083.87 550
514153.40 5259820.23 133
516542.76 5263740.90 498
519163.51 5263555.68 118
511464.47 5264140.84 142
514358.98 5264945.26 350
513799.75 5264529.96 332
521523.74 5262895.49 14
521420.54 5261963.41 0
508221.26 5266754.65 417
508751.42 5262788.43 140
523197.99 5263644.68 1
508455.03 5266395.78 288
507569.15 5265130.30 237
512997.83 5264016.03 438
518731.86 5260746.38 277
507145.38 5265043.31 174
509254.44 5263358.74 3
517226.65 5260357.41 408
511573.77 5264781.19 0
511544.09 5260291.25 122
518780.33 5260666.04 291
519471.02 5261004.65 83
507966.56 5262437.94 69
515092.85 5263258.06 622
513584.73 5260652.94 118
517678.85 5263146.30 209
509506.01 5263044.38 35
508574.50 5264045.44 10
513302.13 5259832.76 254
512471.80 5264264.16 204
511063.94 5264732.80 0
505851.97 5267500.13 186
521960.93 5262994.88 0
522216.60 5263176.48 0
510601.46 5267134.85 308
507469.32 5262682.74 90
511900.55 5261826.15 102
520041.68 5259649.35 53
523276.50 5263597.70 0
511683.81 5260801.35 148
507497.47 5258852.84 373
511378.69 5265797.54 7
515931.69 5259793.67 404
520350.12 5265590.33 0
512489.21 5262684.31 258
507907.62 5259718.23 260
509292.99 5260714.19 63
522366.83 5264688.09 45
506219.34 5261075.84 168
516887.25 5266329.43 114
506157.05 5266188.50 285
519131.81 5267831.95 0
507648.48 5268254.34 373
510213.31 5262618.19 41
510921.04 5267477.77 271
522088.63 5260987.90 0
512473.85 5258606.49 323
519257.14 5263243.81 93
519995.19 5267156.61 0
516804.74 5266959.93 57
505045.28 5264189.46 6
507489.34 5265055.39 222
514360.95 5267122.50 1
507998.48 5267647.66 544
519782.48 5259577.42 87
517314.13 5267938.80 0
510026.71 5267780.17 605
514074.16 5258379.06 499
515669.14 5260681.50 696
519218.53 5259792.53 108
518077.42 5262223.82 213
507578.38 5263729.47 14
521493.76 5268063.84 0
518643.33 5266036.45 28
507432.60 5262972.02 40
516198.43 5261681.50 678
509020.28 5259351.50 240
507897.61 5262451.16 98
506187.20 5261631.26 136
508413.69 5259040.26 141
507436.80 5261649.35 170
508947.97 5266541.93 311
520603.08 5260981.29 42
507444.47 5258487.35 285
511213.22 5260258.36 166
514379.23 5261567.91 346
513716.08 5267629.15 4
518657.40 5265611.99 56
520919.68 5258915.54 38
511575.51 5261530.86 54
514783.97 5263259.79 495
515314.74 5268338.52 0
513448.50 5261454.17 229
515929.40 5267072.84 63
506047.62 5259807.30 313
521547.12 5260130.59 0
510801.63 5261262.93 96
505911.85 5268192.44 140
516094.05 5259652.87 401
513437.36 5264270.39 543
517308.15 5259274.91 203
508368.72 5266057.83 268
518809.33 5262425.68 151
522811.40 5260263.93 0
518924.04 5262178.52 109
513897.88 5260672.49 206
517319.33 5259845.32 319
516547.00 5263730.66 498
509806.20 5266586.85 274
518944.83 5264523.24 104
522262.18 5266260.04 4
519701.22 5261327.49 75
514163.73 5260812.16 219
514985.54 5260510.16 345
510592.94 5268084.91 363
506884.11 5258490.59 187
514245.85 5262470.13 337
521820.76 5260419.57 0
517407.12 5260125.65 340
519319.11 5262058.08 85
520931.28 5261081.39 6
516653.38 5263153.98 536
511247.18 5263287.66 230
521803.35 5266413.86 17
521772.99 5263106.76 0
506338.96 5265196.75 123
519346.02 5264574.14 70
514358.45 5265690.96 373
510982.39 5260040.83 196
505620.61 5262419.54 62
518371.18 5259444.21 138
513184.55 5262577.28 320
521308.20 5268093.49 19
506205.36 5261763.21 148
520856.55 5267744.27 39
521277.25 5263650.49 0
521141.79 5258626.45 65
511004.26 5258999.04 307
511590.33 5262770.06 241
514477.74 5267063.95 10
514403.88 5268031.49 0
510519.86 5262574.80 78
520017.59 5262743.09 40
511541.78 5258342.23 402
515176.34 5265801.62 228
512864.72 5268118.96 198
506175.91 5266580.81 259
516982.48 5260913.61 544
522790.33 5266779.19 28
522535.14 5258594.13 0
522135.64 5258405.15 5
513375.36 5265995.47 45
519276.23 5258902.31 293
515675.81 5262534.02 777
521120.45 5259211.15 27
519570.72 5266117.79 0
513366.64 5265498.35 175
508121.54 5260896.10 262
522824.17 5266631.41 20
505374.35 5266860.70 108
512412.65 5258940.97 269
520806.23 5268352.37 41
510553.62 5262404.34 75
505448.72 5259943.27 213
513403.53 5258317.00 563
519171.62 5259963.85 121
512366.49 5258573.93 298
513069.06 5259792.48 267
511541.53 5264220.80 133
507417.97 5268334.55 298
515138.68 5266633.43 63
505675.22 5267412.46 145
522917.88 5265115.51 33
519583.93 5268170.88 35
516253.08 5268193.87 0
511860.29 5264108.39 169
505277.01 5261936.88 55
523012.46 5264274.14 46
509805.46 5259569.62 234
514743.35 5258706.76 262
513583.76 5267261.85 0
516732.12 5264549.66 305
516082.60 5266359.07 173
517440.09 5265296.70 236
506179.29 5261677.73 141
513282.23 5261633.50 178
511787.36 5263231.18 288
516944.27 5258896.45 308
522856.77 5266978.78 31
505342.21 5261057.62 140
505639.14 5266412.72 178
523057.77 5268005.03 134
508627.06 5265008.72 64
516235.84 5261087.82 684
512539.11 5263528.83 419
512182.73 5268347.08 96
513065.93 5263773.19 413
505048.37 5260993.63 76
516238.72 5263548.79 641
518465.96 5260652.15 318
510410.40 5263447.16 81
509506.68 5265425.50 111
521451.42 5261211.80 0
520465.81 5265827.00 0
518871.13 5263583.81 116
521248.40 5263994.93 0
513739.38 5264381.98 417
523333.82 5266424.82 25
518948.35 5264455.76 119
514785.37 5263660.82 635
511477.10 5260814.63 80
511516.77 5265028.98 0
517158.73 5260505.25 439
518374.49 5266707.20 37
508827.08 5259125.19 173
510838.94 5263326.13 151
521742.93 5262785.99 6
517113.10 5266509.00 103
508617.75 5267791.10 598
512847.04 5258984.43 377
510379.89 5259346.57 207
511243.51 5261783.93 49
513922.57 5261834.76 342
506382.55 5262852.19 49
509143.16 5261514.23 187
517295.50 5259374.82 240
511305.79 5267708.17 260
522130.98 5260864.19 0
517632.38 5267607.01 0
519881.69 5260681.61 47
520009.54 5261545.36 81
523246.06 5264705.29 70
519690.08 5264009.23 84
505959.12 5264987.95 99
520639.48 5265079.29 12
520906.30 5266158.68 7
520578.08 5259962.21 13
518600.61 5268170.32 5
519490.37 5266379.57 0
508989.94 5267996.90 620
508461.03 5261725.72 124
519398.64 5267779.63 0
516605.47 5258984.39 359
506587.21 5260060.11 300
518951.27 5262862.96 81
508718.27 5264433.92 27
512580.67 5262050.87 253
507587.27 5262009.41 201
513608.30 5261078.98 191
523352.29 5262609.58 0
515910.12 5265120.48 407
512305.15 5260007.97 173
508769.08 5267502.90 547
508634.23 5259487.87 99
519443.28 5260830.19 124
523085.64 5266662.58 16
508058.96 5263225.74 0
523068.79 5267325.03 32
511117.34 5264587.24 0
516030.30 5266987.97 71
509034.05 5259724.41 162
513282.03 5265999.54 87
518723.76 5263172.74 113
515831.78 5264381.87 570
520064.03 5264269.04 48
519764.27 5262425.55 50
516470.67 5265935.41 286
510436.20 5258407.85 328
509906.60 5265508.27 91
521878.83 5263089.40 0
516255.51 5266502.73 114
520583.72 5261177.70 35
510725.96 5260304.42 117
506461.58 5264378.47 28
511269.74 5260207.78 178
522620.93 5262436.21 13
518693.03 5263512.46 96
520252.90 5261795.87 57
515709.61 5261913.74 887
514171.11 5266340.03 86
519638.57 5260866.15 77
513807.08 5261863.97 303
507235.63 5260667.52 302
505119.17 5259177.68 120
507402.75 5265989.97 501
515119.18 5264581.98 577
506608.17 5259543.30 327
510086.78 5267044.48 375
517050.36 5263083.90 413
519864.62 5263445.63 75
507060.70 5267406.04 451
518856.56 5266283.07 22
505548.31 5266443.74 164
517518.98 5259914.96 295
508483.60 5262294.73 113
517476.38 5264320.46 219
519248.28 5260796.88 134
508905.04 5259170.66 197
508974.17 5264056.31 12
516219.47 5263388.91 655
511875.04 5265637.88 0
516527.26 5262959.08 510
508799.08 5264032.20 11
515000.35 5262955.00 611
522053.21 5260829.49 0
520078.69 5264854.73 16
515846.98 5258487.01 373
514690.15 5262095.16 500
508417.00 5265000.76 83
516474.05 5260908.59 651
518151.33 5262439.50 141
505714.76 5260243.08 210
522859.10 5261055.14 0
508414.59 5264041.19 16
506647.44 5264202.55 18
516917.85 5268012.44 0
512685.07 5260524.07 128
515694.62 5262567.05 773
507932.29 5259044.86 352
520244.02 5263198.19 38
508342.41 5265495.54 192
508404.21 5260105.33 208
516290.53 5261310.56 686
511834.85 5266526.43 19
511127.55 5259981.27 242
505390.56 5266667.47 117
511504.28 5263355.22 247
519095.41 5263489.98 144
506941.10 5265808.29 428
506291.67 5262362.32 148
510990.62 5266212.69 66
513181.67 5267587.40 27
516966.36 5264920.72 429
516996.68 5266499.99 105
521972.26 5267592.83 23
512470.62 5259222.64 362
521940.86 5263043.26 0
509104.35 5259924.04 112
518439.14 5262771.87 110
517483.51 5266102.14 114
522982.08 5261600.47 0
513810.58 5267896.00 12
523047.17 5260190.89 0
512183.97 5260545.75 159
515800.20 5265234.95 332
507354.49 5261915.41 162
521372.40 5268109.42 3
520851.97 5265947.20 0
518298.15 5265640.19 67
505736.80 5265906.29 370
505633.06 5265828.36 367
510378.85 5265868.24 97
509743.83 5261425.48 65
521700.85 5267512.88 10
521451.37 5267171.34 28
505479.07 5260441.77 237
520240.96 5268378.52 31
518441.09 5265561.45 58
510605.13 5268083.43 363
519371.24 5259217.93 183
507728.12 5266115.54 364
516136.06 5261732.18 710
517698.54 5266642.81 61
517378.21 5262139.04 347
522969.88 5266993.09 39
510098.14 5266656.09 316
516555.95 5266053.32 222
523144.02 5263123.40 0
509183.05 5262107.56 229
520954.53 5259318.11 32
516557.72 5261863.89 565
516177.65 5266860.30 75
518102.11 5263841.66 254
509559.45 5259630.78 209
505112.56 5261383.03 82
511650.70 5261722.90 93
522279.70 5259742.66 0
512808.16 5260066.97 219
513653.86 5266783.38 0
518742.57 5261609.46 182
522237.84 5267078.57 21
509247.54 5263537.14 3
515924.28 5263872.53 643
508603.99 5262001.17 129
511453.16 5262114.52 166
521477.27 5260289.60 0
510516.21 5260076.68 167
511258.66 5264798.48 0
512000.93 5259249.94 209
507878.31 5266099.44 314
521425.03 5259764.54 0
510853.60 5265384.15 32
514341.79 5262546.55 348
520873.44 5261575.31 17
513637.38 5266539.01 16
508191.40 5259819.77 208
513734.15 5258807.68 556
522880.89 5258472.92 0
505310.82 5265390.03 166
505489.55 5258867.47 183
520610.07 5264351.95 25
512792.60 5262778.28 322
519293.95 5267941.02 10
521871.75 5261152.06 0
512556.17 5266043.91 28
522079.32 5266226.35 11
511166.24 5262832.93 137
514613.31 5260337.34 244
516876.65 5258291.18 344
511413.28 5265213.00 1
516893.09 5268350.78 0
508346.38 5268168.03 530
505687.33 5267403.36 152
509099.83 5266219.06 279
511517.14 5262346.21 214
512647.47 5259086.81 384
511874.20 5263183.46 283
518759.16 5261621.06 193
523116.03 5260967.38 0
511578.14 5263479.01 263
512044.69 5258651.92 258
514396.98 5262532.44 367
517077.84 5261192.60 473
511905.83 5259281.78 194
515729.87 5262838.89 760
516214.64 5260168.51 449
510780.35 5263327.61 146
507155.52 5263634.89 0
507067.32 5260435.64 281
520394.86 5260072.09 36
520383.10 5261543.46 24
523347.68 5259907.94 0
516977.40 5266813.74 60
516243.78 5259731.27 422
509220.29 5263888.06 0
513650.90 5267308.05 0
521192.65 5259401.23 10
517874.28 5262034.50 259
508150.76 5258761.44 285
519536.12 5260069.49 72
517502.38 5263678.50 250
518246.43 5259232.25 164
505458.94 5259942.60 213
522623.72 5266913.27 22
516311.04 5265549.37 283
515888.16 5267981.81 0
520619.76 5267210.07 25
523339.29 5268337.86 129
505490.51 5260385.32 196
514367.09 5264975.90 352
519594.64 5262432.94 61
505295.74 5261652.72 69
520920.75 5260836.10 9
517821.93 5264835.96 176
520665.28 5264363.51 14
510607.89 5264830.72 17
511943.50 5264200.21 222
522806.31 5258650.49 0
516080.52 5262348.55 723
514153.87 5259987.82 147
510710.76 5266729.90 161
509004.12 5261346.42 209
506408.49 5266796.45 347
519522.82 5264280.49 80
509021.92 5262055.79 183
518431.48 5258356.63 479
507065.60 5266118.33 476
520466.82 5262405.63 20
506048.76 5263451.23 21
521230.66 5267633.92 3
512049.37 5261996.00 187
513224.32 5266988.98 0
513379.78 5265808.02 99
522942.49 5266093.57 13
520214.70 5264024.45 62
514753.82 5262550.70 470
520160.00 5266604.99 0
515314.55 5263649.12 715
512623.30 5263049.58 320
508183.05 5262602.80 80
513305.69 5261573.61 204
508704.24 5266227.95 270
520274.91 5259153.14 90
521807.87 5264429.30 17
515974.69 5260042.98 438
520105.73 5267550.39 24
511418.66 5261821.06 93
516537.79 5264115.80 424
511786.40 5262612.59 184
516393.62 5265499.17 301
510086.34 5261259.34 102
515138.84 5268023.63 0
521646.74 5263960.92 0
518332.73 5263905.25 160
512206.97 5261882.23 180
510527.83 5261056.58 102
521949.92 5260890.94 0
514680.11 5264476.63 530
516001.64 5267942.36 0
518417.94 5265748.18 58
518814.39 5258956.16 296
516032.92 5260191.93 461
514688.23 5264178.80 622
514556.71 5267401.44 0
513139.72 5264155.05 509
505541.09 5261812.70 77
519714.45 5260105.34 77
511804.10 5258875.22 234
509313.26 5267123.67 288
507538.10 5264933.99 196
514302.67 5265354.46 327
512948.39 5263127.15 374
516080.21 5259548.78 398
505976.78 5261854.16 133
518500.97 5262688.88 102
517876.72 5265476.88 133
523085.36 5258867.98 0
514733.59 5258954.26 177
515856.71 5259196.76 355
515062.19 5262002.67 585
510802.87 5267764.00 335
522519.73 5265478.27 44
511849.52 5267908.70 279
514059.54 5266857.32 2
512093.85 5268187.82 144
505673.66 5264495.05 0
512178.95 5268217.70 118
507388.81 5261973.17 164
509752.81 5264053.00 16
506423.63 5260422.80 261
514846.34 5263893.04 656
522769.07 5267085.06 31
512546.93 5264462.06 225
507730.72 5266022.71 349
507393.82 5264077.58 48
512585.98 5263696.40 434
506537.78 5261117.76 251
521731.27 5258317.39 31
522122.06 5261726.63 0
522897.62 5267441.43 26
505521.25 5262188.75 73
515255.96 5263528.99 694
510653.63 5267083.14 269
505910.49 5264362.27 18
518941.28 5265819.25 50
511956.70 5261105.02 70
512689.30 5260576.18 129
506797.48 5266808.57 336
513647.31 5264978.75 201
508117.78 5267314.89 543
520413.22 5258767.59 79
510810.35 5260107.62 133
517796.30 5267632.05 0
505738.60 5265727.38 371
507994.20 5260690.90 338
510720.60 5260607.34 159
519435.99 5263683.90 70
515603.35 5266708.51 140
510603.44 5259582.56 151
505119.98 5258724.44 193
507377.24 5259911.17 337
522301.00 5263223.81 0
517294.61 5260677.56 401
517670.21 5264453.61 168
513757.07 5265276.95 198
514445.81 5262570.53 371
522520.09 5262669.21 0
505966.79 5260016.97 331
508853.92 5263801.39 0
521249.94 5267611.72 6
522453.13 5260279.27 0
515323.12 5258626.02 256
521132.73 5262106.30 0
519406.24 5262606.28 71
505069.90 5258386.74 234
516495.70 5258867.73 372
507370.49 5259618.79 398
522083.77 5258422.04 6
507492.57 5258863.41 373
519239.82 5261689.42 151
511247.94 5262484.88 187
521911.18 5261781.51 0
511584.80 5261566.33 56
510257.23 5258444.92 269
510795.13 5261948.71 45
512014.14 5265070.60 71
512952.20 5261617.38 147
507980.60 5264481.67 92
517865.26 5260754.87 306
519759.53 5264004.22 97
518282.30 5259155.76 186
519223.27 5263084.30 63
513086.64 5260403.36 189
520145.18 5263511.96 89
511133.69 5261985.49 72
505544.25 5260292.68 137
506967.28 5265457.96 243
511371.53 5266467.56 116
522472.62 5268196.25 119
519484.85 5261695.06 108
517236.35 5267336.78 18
519311.64 5263869.12 77
511270.71 5261305.74 80
509003.37 5265258.33 68
507966.28 5263179.64 2
506606.17 5259401.30 317
510532.46 5265540.24 54
506194.33 5262751.60 63
515605.87 5259445.62 327
514235.10 5265923.89 271
508853.06 5266036.87 252
517786.39 5265185.93 174
505740.16 5260950.86 225
522012.53 5262548.04 0
517636.79 5258355.64 284
508299.01 5267346.92 561
514353.52 5258452.36 420
522076.02 5263603.41 1
522735.54 5262999.92 0
517359.95 5264919.01 290
516122.10 5261250.29 722
506194.19 5265143.35 83
509679.76 5267924.26 437
519498.81 5265796.38 2
505148.92 5266524.41 120
506908.57 5263864.23 0
516832.28 5263108.74 462
515218.67 5259369.72 424
521093.49 5261967.46 1
510681.01 5258903.97 209
512828.26 5261556.78 186
518198.41 5258615.18 297
521194.54 5263982.20 0
519670.61 5262734.68 62
516240.02 5261893.78 654
508420.94 5267672.49 585
519744.72 5264240.38 73
512900.96 5266694.93 0
517420.12 5265854.07 151
515090.48 5267215.34 60
520828.44 5259239.02 45
512810.53 5267086.20 14
513858.54 5261383.04 254
522105.88 5259799.91 0
506822.03 5265557.76 271
506862.61 5260606.28 234
510757.47 5258738.57 273
518790.28 5263178.62 111
512462.81 5259858.62 203
516466.77 5262325.42 570
510006.52 5266958.32 391
508490.37 5258303.40 227
520159.10 5267067.33 0
512097.00 5263391.25 354
508528.44 5262952.69 88
506042.85 5264621.29 1
518196.08 5259825.82 247
506612.36 5263797.09 10
514669.41 5265760.45 318
507173.05 5268183.70 265
513090.08 5266716.16 0
519205.42 5259017.11 230
522056.67 5265778.15 25
520233.81 5264982.91 24
505437.92 5263163.63 21
509851.00 5264899.00 18
519760.62 5260679.23 61
523017.57 5261152.66 0
508304.58 5263260.16 0
522291.53 5260500.97 0
510680.38 5260331.39 144
505334.82 5265751.54 304
522186.88 5260573.83 0
521024.78 5266200.12 10
513624.50 5264046.62 564
522658.53 5265946.00 17
509027.16 5268170.43 626
509310.45 5258808.71 210
516639.00 5261423.33 545
506974.39 5266818.04 365
519315.89 5258497.90 352
506199.89 5258915.79 166
511763.18 5261521.67 71
517999.99 5266212.53 61
519761.98 5264798.07 25
505460.21 5259466.44 183
520174.00 5267983.04 22
523021.21 5262709.66 0
522152.96 5261185.85 0
512993.38 5261406.41 116
505236.09 5260821.07 127
508502.18 5267350.92 573
515039.82 5267397.70 10
520956.51 5267565.02 30
516173.99 5262395.81 688
509761.61 5266666.54 276
509419.99 5263260.05 8
510927.25 5264649.55 0
513871.65 5258958.76 494
511299.78 5268357.62 301
505271.66 5266720.75 107
512786.62 5261182.06 98
509445.21 5259661.71 225
508222.34 5267705.22 569
519663.71 5259496.29 101
506819.32 5268151.73 227
514695.69 5260140.38 235
513721.13 5262365.51 198
517860.81 5258461.25 315
516835.22 5267063.53 60
519653.51 5261685.85 72
519965.45 5262416.14 43
514240.35 5262868.24 335
513284.41 5262039.31 185
521090.38 5261804.20 6
505212.66 5261313.21 103
506737.27 5266504.68 318
506032.88 5267155.93 213
522416.42 5264396.96 58
516524.53 5259664.63 397
521830.06 5260551.66 0
509922.86 5264024.65 26
520866.26 5259213.20 49
513749.11 5266571.30 9
521913.73 5266502.21 35
517890.31 5264517.85 177
505841.87 5260368.95 168
513319.25 5264631.32 423
506769.08 5266379.69 337
505422.75 5266837.69 111
509506.23 5266032.52 280
514713.18 5258417.37 255
509910.44 5260109.88 184
514705.45 5267805.66 0
513257.82 5261652.51 178
509810.79 5260691.16 116
516925.21 5260802.88 524
515605.46 5259659.35 431
511526.59 5262033.23 171
517123.30 5265579.07 292
520561.46 5266392.89 0
512978.05 5266636.62 0
510175.70 5266933.28 338
517525.60 5264181.60 293
506014.58 5266802.46 224
516296.82 5265557.59 272
517336.99 5258806.66 276
519943.85 5265862.86 0
515784.57 5260187.40 536
509216.80 5266941.09 341
514968.88 5267745.24 0
508801.91 5265435.14 122
520788.32 5261309.30 19
513413.95 5267626.78 32
523263.65 5268277.81 115
512022.22 5265261.59 45
517080.08 5260193.06 370
508053.96 5263853.55 20
507371.75 5267893.44 430
519494.68 5264378.10 84
514683.78 5265425.67 366
521683.33 5267341.60 11
512721.17 5262601.70 264
521496.23 5258530.36 22
508583.83 5260441.88 303
510704.38 5262530.60 113
517020.11 5266667.87 82
513902.99 5259653.14 217
516209.01 5262660.36 700
506638.02 5265899.80 402
522658.28 5259136.08 0
508738.50 5264378.42 24
510777.83 5259072.17 233
506178.17 5265503.59 187
520476.51 5263131.75 26
505780.73 5264967.59 122
510277.76 5264897.29 19
512941.06 5266095.10 39
519219.07 5261156.24 87
511133.81 5262164.98 184
515474.14 5261568.07 693
518852.38 5265017.61 86
506376.54 5267581.77 336
509561.95 5264557.27 1
520545.55 5261184.67 34
522236.62 5266795.09 32
511740.43 5266226.72 4
513314.88 5265933.64 91
513970.88 5265395.60 165
511435.75 5265902.73 7
508679.30 5261655.56 160
517126.26 5267817.09 3
510340.82 5268176.98 435
516587.53 5261035.95 613
509862.84 5262859.13 34
513095.02 5261539.24 138
506297.13 5262718.32 69
520710.00 5260593.44 5
518391.66 5259649.33 135
512687.14 5265905.81 64
517958.13 5263445.44 172
520981.19 5268197.27 33
515152.88 5260616.94 447
520003.92 5267762.08 30
519443.01 5262552.87 71
506742.61 5259013.86 202
514670.61 5260074.12 228
518781.89 5268235.14 14
516391.42 5267218.63 56
516472.52 5260586.50 542
522792.09 5260457.53 0
517759.67 5260385.58 303
513572.28 5265915.31 92
513745.00 5259958.91 213
515369.35 5267837.97 0
521977.97 5265583.97 30
515392.46 5261107.62 589
516040.13 5266268.70 185
505109.24 5264111.14 0
509130.51 5263509.55 1
518012.47 5268021.74 0
517677.86 5265232.51 215
510065.64 5261394.64 101
522646.12 5264781.45 54
519352.22 5260400.09 167
521106.54 5262047.06 1
520735.88 5258810.69 60
522447.29 5265389.08 39
519583.34 5266659.04 0
520331.26 5260633.73 53
521044.90 5263218.75 0
509992.32 5263912.98 35
521871.03 5266444.87 24
507395.42 5263049.73 29
508026.38 5267035.19 532
517494.71 5263068.61 243
520960.51 5263344.28 0
519560.02 5264564.78 55
518528.89 5261915.07 155
517371.20 5266562.07 73
516703.06 5264012.85 325
506525.78 5264900.36 60
513533.15 5259156.23 520
520861.65 5263914.82 17
515605.00 5267614.88 4
513895.49 5262138.90 286
505926.61 5266268.61 220
516322.79 5266467.38 147
515126.61 5267020.60 59
505900.10 5260829.89 244
523223.54 5260054.92 0
515192.57 5263851.34 721
518504.28 5262796.87 102
511317.88 5265484.34 3
519483.93 5264201.77 75
517499.33 5259444.62 268
511890.59 5262208.40 178
519319.51 5258917.50 290
522017.54 5266057.52 13
507501.36 5260247.07 322
519505.66 5267028.84 0
512329.47 5258484.56 301
506819.16 5259030.28 225
517435.48 5263161.01 255
513200.76 5258801.11 480
517572.99 5262225.16 278
511589.14 5259918.64 135
507645.04 5265104.88 218
514782.37 5266457.67 209
514158.12 5263265.80 397
509084.36 5267615.23 411
522669.77 5262105.84 0
510447.60 5268042.75 365
505624.28 5266235.37 258
514213.57 5261515.02 308
506868.32 5267968.74 313
507937.66 5263021.92 28
515542.44 5264123.28 625
516512.34 5265271.84 398
513717.81 5262089.87 203
509115.09 5264871.12 46
505070.51 5268248.86 131
512770.84 5261302.85 115
522622.99 5264779.00 54
519599.24 5266609.65 0
510913.14 5259735.24 219
514448.58 5260163.59 209
506528.18 5259613.22 324
509138.18 5267262.96 320
511494.47 5262586.82 214
510836.73 5265776.79 50
522265.48 5265507.83 42
506930.88 5260197.28 272
518226.72 5268070.80 0
518153.53 5262802.55 199
514569.32 5263877.76 609
508499.64 5261458.35 150
516106.71 5261968.33 727
507117.86 5261818.73 125
513659.73 5262711.04 303
521679.77 5259724.30 0
506878.25 5263576.27 25
513977.09 5258811.11 553
521173.73 5259838.55 0
510935.93 5262442.05 175
516481.04 5265034.90 476
520219.67 5263801.17 85
521682.80 5261629.29 0
522131.40 5263895.27 10
505584.51 5266016.09 346
512682.37 5267005.37 11
513898.48 5261259.80 246
510611.18 5262129.38 65
514425.16 5265831.46 352
514629.35 5264760.98 411
507914.88 5262876.45 52
515184.02 5261825.93 605
507786.24 5261326.85 229
515268.90 5266758.98 116
510028.93 5265065.67 30
519595.87 5263071.41 50
516100.09 5267845.44 8
505090.88 5262628.64 40
519502.38 5258579.05 298
509761.08 5260536.73 155
517185.76 5266054.57 135
515213.39 5262575.64 616
513503.66 5265597.03 89
514799.31 5259097.30 255
513263.56 5259629.35 297
505190.01 5259364.58 110
515538.01 5261331.19 654
517856.46 5267066.13 17
519817.31 5259195.31 172
522268.18 5260190.09 0
515822.63 5258689.84 329
519856.96 5266480.62 0
505928.54 5260490.02 189
521109.27 5267572.83 4
514827.21 5264089.10 648
516175.09 5267528.55 26
521588.33 5268270.15 7
514432.14 5266120.41 270
506477.30 5262605.97 85
511969.80 5258516.70 277
522024.47 5262870.77 0
509302.92 5266469.08 320
522771.92 5262161.83 0
517057.63 5262621.94 341
510456.68 5259504.25 158
513484.77 5261704.42 213
513841.68 5259958.67 171
514272.60 5259879.70 148
507342.06 5260662.41 328
518834.88 5262559.97 122
507516.92 5259113.72 381
522021.81 5258523.11 9
505893.17 5268329.03 118
513450.47 5259291.58 449
519405.93 5263347.36 95
523281.08 5266329.17 29
514549.70 5266074.53 315
513940.73 5258885.80 503
522965.10 5266936.89 38
519436.45 5259296.02 167
512429.50 5261995.78 236
507560.25 5261391.40 264
507503.42 5258302.44 317
521332.87 5266604.70 0
520647.91 5259721.40 12
520494.02 5262960.98 13
522020.93 5263922.28 8
521020.28 5259099.51 28
509375.49 5258823.60 230
517334.11 5264742.81 277
521514.54 5263995.04 0
515138.52 5258941.91 237
522921.19 5261498.50 0
511792.13 5268139.87 239
514146.68 5267291.90 0
511705.33 5264623.52 47
510222.05 5267828.57 490
513837.86 5264828.20 311
505693.54 5262412.09 69
505284.14 5259679.78 214
517956.20 5266269.46 60
511378.57 5266467.01 116
517182.17 5260680.55 432
516994.92 5258318.15 325
514732.84 5262399.96 461
514181.66 5263782.54 603
519610.46 5263169.89 47
515746.79 5258905.98 338
509975.49 5266285.40 264
513386.39 5267537.20 18
513913.31 5261606.90 302
516787.02 5266168.51 129
509493.69 5265447.85 111
512904.49 5261614.90 177
520787.45 5259317.18 40
515971.43 5264154.72 637
508882.14 5258572.63 147
514343.54 5260230.89 215
516684.00 5263676.30 486
518221.19 5259389.72 132
510313.79 5267645.65 472
510956.42 5261621.33 57
521879.91 5264728.43 24
509510.83 5258937.04 266
505880.06 5263672.77 7
508653.67 5260443.19 260
519127.62 5262505.71 87
514239.76 5262412.24 371
520983.10 5262744.71 2
507839.75 5264666.79 119
518767.42 5258821.75 352
509099.17 5267548.21 392
522742.49 5263996.71 31
520046.66 5265236.45 2
507197.27 5263649.29 0
510539.92 5261654.72 65
510376.67 5265508.81 60
522475.48 5266945.11 18
522062.29 5261994.68 8
513888.81 5266849.51 0
514527.83 5263200.29 427
520372.74 5268065.32 32
514152.11 5268074.94 3
508472.69 5267546.32 583
516146.61 5259061.06 402
506932.99 5266114.48 459
516757.81 5264988.57 463
510277.88 5260261.26 182
510461.47 5262759.98 62
521754.86 5259912.20 0
508173.37 5267372.67 545
521696.73 5260247.71 0
522342.38 5264717.03 42
516935.14 5262831.67 424
507808.69 5258667.48 360
511815.58 5262278.59 116
520037.49 5265457.11 0
510585.63 5268269.13 342
518943.29 5266582.58 10
512283.79 5268171.18 99
505051.68 5261899.57 37
508013.32 5265538.36 202
520063.31 5262884.42 41
514489.67 5263979.15 601
520886.03 5263679.54 4
505473.38 5260324.63 177
515451.01 5259875.96 519
514105.28 5259006.36 416
513963.75 5259637.32 214
520597.09 5266714.06 5
510491.45 5264278.01 4
508848.47 5261380.48 210
515860.47 5258463.19 373
517764.57 5258813.48 215
523262.75 5259549.87 0
508995.89 5266500.32 302
522158.06 5261671.18 0
507777.77 5259731.50 316
515824.53 5262254.24 833
507152.96 5263240.40 4
506963.17 5262582.88 49
520962.84 5258498.58 117
519398.99 5265345.07 28
517529.55 5259102.79 192
513646.81 5265076.31 194
510158.06 5259591.70 221
518906.12 5268302.05 25
519327.97 5267542.54 0
509665.28 5266670.31 227
521946.15 5263165.98 0
519453.90 5265187.36 14
521760.48 5262544.14 19
522528.57 5259588.68 0
517248.18 5267534.51 18
515028.52 5258876.94 220
508206.87 5261703.87 114
512695.85 5260842.87 81
521504.73 5268229.38 21
518608.42 5266119.04 25
514690.83 5263015.48 492
522627.93 5263490.20 7
508939.12 5258339.68 167
514784.86 5264289.17 601
510224.73 5268057.72 426
510840.20 5258862.70 249
508435.97 5263465.09 2
509830.62 5267971.91 560
520440.99 5260843.65 48
509243.22 5259315.97 239
517680.31 5266121.09 78
514297.15 5260391.04 217
520898.07 5262541.75 9
516463.41 5260594.18 542
517159.87 5263530.68 392
522411.56 5258994.86 0
516446.59 5261692.44 577
506147.62 5263019.50 37
512444.40 5265692.14 91
518829.36 5259258.09 197
518183.34 5258532.58 317
512852.19 5266523.87 2
522553.83 5264213.99 71
521082.19 5265902.29 0
513118.11 5265737.35 212
518108.98 5258567.61 298
521668.65 5264517.95 10
518761.89 5263747.89 105
507660.79 5260770.46 310
505174.43 5259362.58 112
512938.28 5263074.43 366
514200.28 5261271.80 286
516829.84 5264913.44 438
521310.04 5264599.44 0
521389.97 5258499.20 28
511653.47 5258955.46 239
505674.63 5261023.94 205
507986.98 5266494.53 379
507598.82 5263503.39 3
509008.52 5265568.91 140
522701.29 5267370.84 21
516418.95 5258843.64 396
516576.13 5258433.96 366
505040.59 5260730.00 90
505033.40 5264987.06 69
508653.92 5267548.30 593
513283.89 5261504.05 219
519507.24 5260956.05 82
508065.42 5259098.45 285
515505.20 5267633.12 1
513429.58 5267644.21 31
505344.38 5265577.24 274
520015.62 5266853.84 0
513454.53 5264339.08 489
509959.89 5263117.57 33
514869.01 5261867.18 524
508532.33 5259919.06 194
505631.88 5267453.78 133
510877.16 5264030.68 54
518415.50 5258833.86 305
515319.39 5264332.92 560
507388.68 5258960.07 370
512879.45 5261225.26 101
520881.29 5266456.90 11
520602.81 5262794.85 3
508614.57 5262808.76 116
521373.91 5262218.28 0
508867.30 5259907.87 89
518943.71 5259735.56 111
506299.44 5260376.44 239
508815.17 5264320.87 21
522463.33 5262320.83 18
522549.63 5259185.24 0
513133.46 5263155.56 400
520444.99 5259948.36 18
519976.74 5259671.76 60
507537.40 5265178.95 253
521519.47 5266279.09 0
506483.80 5259702.87 310
519539.79 5258344.81 288
518502.32 5262573.66 121
509037.02 5262936.21 89
520572.16 5264530.97 25
514214.78 5264764.76 377
506005.57 5261619.82 113
512414.47 5260554.04 114
505076.06 5266190.23 147
512137.22 5261120.50 66
520429.60 5267743.09 35
513959.56 5262333.62 254
522729.59 5266342.83 8
520347.50 5265845.06 0
511987.95 5265987.07 0
518179.07 5261101.90 318
522608.41 5261664.20 0
517594.55 5267126.38 23
512495.83 5258445.32 332
518510.52 5264961.20 81
517120.45 5258478.24 272
509719.88 5266113.14 142
518469.83 5260829.95 243
513402.52 5264410.96 457
514016.86 5262239.46 266
515881.06 5266806.37 126
509828.77 5261438.32 77
506469.92 5265738.53 375
520750.89 5262194.41 22
519767.54 5262064.19 51
515767.35 5262913.65 769
506070.19 5260716.51 257
507915.23 5267742.01 545
505464.05 5261696.96 88
507965.60 5261325.34 147
517393.17 5266709.59 59
505491.66 5263926.68 5
519483.03 5262691.37 73
507906.80 5259319.86 301
517641.35 5263417.71 320
522631.75 5268271.02 139
520620.93 5261458.80 21
515376.81 5265234.24 282
509077.86 5267173.02 361
511814.76 5260387.48 112
518983.78 5267600.37 0
512888.35 5264630.77 368
506344.35 5261602.12 189
507813.02 5264069.75 44
522607.96 5266009.06 12
505211.22 5263027.50 34
512979.22 5268128.20 198
516695.54 5261234.04 529
514244.02 5259446.70 224
512538.58 5262443.89 278
505363.37 5260528.32 231
517087.15 5258434.13 280
513971.87 5259426.37 326
508698.11 5260260.30 245
519888.39 5261047.35 55
522717.91 5262794.53 0
515753.11 5263801.91 682
511627.13 5267890.01 267
516467.73 5262536.93 582
506378.57 5259225.63 257
507319.24 5266024.00 500
514858.38 5264646.61 531
517607.40 5268311.97 0
509100.94 5261015.30 131
510668.72 5259300.00 189
517382.32 5264552.28 212
520183.27 5261859.22 61
520254.48 5263922.76 55
522574.18 5262392.58 12
513654.84 5264528.77 330
517840.15 5267321.61 0
513272.48 5263478.13 535
515292.04 5263619.75 710
520497.23 5261893.84 39
517053.32 5266099.56 186
515601.27 5265952.18 284
514232.99 5268025.23 0
522101.07 5268169.13 105
507353.74 5259429.81 323
509759.36 5259536.65 234
505221.83 5267356.61 108
508500.45 5264208.18 19
516662.79 5265646.20 317
517583.39 5261159.38 386
510474.88 5263072.71 74
521222.11 5265147.38 0
509069.48 5262253.11 170
505855.63 5258599.75 217
518500.96 5262920.89 113
512897.80 5267696.57 68
505640.39 5258485.88 172
520254.43 5261535.90 52
511641.68 5264851.17 0
505345.36 5267271.08 119
522540.72 5259558.38 0
514435.95 5265550.55 382
507337.02 5261865.28 160
515957.79 5266622.43 172
518059.18 5261745.05 215
510659.69 5261586.87 86
519453.36 5266956.57 0
510956.99 5265084.37 7
519817.61 5265800.00 0
514667.30 5262178.07 508
509008.59 5261466.60 183
517035.01 5265697.88 242
521409.16 5262594.14 17
521226.94 5266291.20 0
506640.23 5266942.43 278
520889.05 5259696.15 7
505184.59 5260312.57 126
510927.86 5259145.71 299
519415.08 5259991.28 77
507203.50 5265577.13 353
513873.03 5261668.90 306
512383.09 5267745.18 135
509329.41 5260630.83 80
511143.49 5262668.67 123
513658.62 5260323.13 103
505189.09 5261041.39 100
520644.19 5265251.92 0
505674.49 5267359.75 145
522790.36 5261534.99 0
512904.75 5259010.47 391
516286.18 5259849.75 428
508111.62 5260243.49 325
509321.39 5260585.14 90
522758.13 5262259.91 8
507391.56 5258486.20 287
521323.51 5264860.67 0
512018.82 5267240.07 105
506665.81 5264153.18 2
511661.82 5261650.93 62
509993.13 5259588.82 242
508080.29 5262942.57 19
511698.26 5267483.34 157
516069.67 5260518.28 520
509585.88 5267533.72 369
516129.19 5262463.27 700
509514.45 5262811.52 62
515584.00 5261387.47 683
519648.66 5261918.10 83
505666.64 5267959.39 129
520743.93 5267408.77 33
519974.09 5259624.55 59
516037.88 5267586.96 20
505560.23 5258507.21 185
513869.88 5258881.40 526
510672.55 5263639.44 96
517319.22 5264612.42 238
507746.08 5266308.59 402
507259.15 5266993.75 408
514726.20 5263158.40 448
513122.82 5258301.34 541
523323.77 5260037.05 0
506870.05 5260357.82 263
511135.05 5267689.70 276
520082.03 5265616.72 0
522532.17 5260406.41 0
515651.82 5259694.51 437
517352.85 5260913.91 465
512694.20 5262028.78 230
509841.91 5260233.88 184
522660.90 5264822.03 52
510278.00 5264282.38 9
521906.98 5264337.26 19
507679.33 5264488.49 120
522274.02 5264604.42 45
518022.94 5266829.96 37
511242.62 5267739.23 269
518982.09 5260254.96 269
510641.57 5261682.01 79
510120.53 5262740.49 37
518708.80 5263593.74 105
517703.29 5259690.23 271
523160.63 5262854.02 0
515360.58 5267523.42 23
508074.32 5261615.37 101
511546.57 5262036.81 171
518066.44 5263656.73 238
513691.29 5260359.77 106
516534.39 5261683.56 543
518524.42 5261766.80 156
509812.23 5264020.25 23
509757.17 5264482.28 0
513391.95 5261996.66 157
511726.76 5264625.60 55
520873.28 5262773.23 3
517986.39 5261847.91 261
508906.06 5260403.20 141
512099.54 5260477.67 170
520886.01 5262045.80 17
505948.74 5259386.00 176
522094.99 5259604.08 0
510430.09 5264448.20 1
520303.72 5266392.59 0
518479.21 5261735.38 161
507871.55 5266591.06 433
510735.86 5264384.60 4
512853.09 5261134.44 111
515487.75 5260543.70 680
511681.71 5264162.94 126
513337.72 5261184.75 135
521284.48 5264219.13 0
514913.16 5264755.83 534
511997.25 5262767.67 237
516787.12 5264779.31 380
522351.35 5267634.85 52
515709.05 5268348.08 0
517754.25 5266843.55 50
507793.71 5266463.07 419
517147.75 5259396.49 230
515730.10 5260916.31 661
518791.94 5261387.26 119
515400.00 5264953.58 349
520629.54 5263168.93 12
522217.57 5260492.81 0
508148.50 5267422.84 547
523101.69 5268114.10 129
515332.29 5260132.83 508
517475.84 5258333.48 299
512934.48 5265072.92 315
521971.16 5267045.81 33
514349.99 5265676.01 367
513091.60 5258543.66 470
514165.10 5259324.60 300
521009.67 5268071.60 31
523005.33 5258917.92 0
507508.83 5267516.87 495
522714.82 5259526.22 0
521338.91 5260188.09 14
520770.55 5265503.35 0
514740.62 5263174.94 448
507776.02 5263779.56 20
513865.97 5262471.73 226
511426.92 5260901.09 78
517770.99 5266656.61 64
520536.29 5266989.54 15
508277.91 5265350.51 168
510776.87 5263985.90 69
517679.11 5263321.99 298
521710.01 5265508.97 15
515441.34 5259509.28 411
506322.85 5261377.75 233
517729.73 5260956.16 398
515266.65 5265937.59 121
520323.76 5262935.66 31
514292.02 5263613.79 598
510881.41 5268352.60 321
508974.53 5265769.66 195
507481.93 5259091.27 377
514862.38 5261963.74 528
507848.54 5260011.19 322
520714.34 5264732.29 11
507208.65 5260849.66 278
517148.17 5268377.16 0
507061.88 5265996.50 480
508045.15 5264586.64 113
509145.58 5263545.05 1
521635.10 5262859.34 0
505683.48 5266014.01 366
523289.92 5265045.34 38
518933.62 5268016.25 7
520176.61 5264088.94 64
509247.37 5267925.39 513
506192.46 5267207.87 296
508310.34 5263861.54 13
512305.37 5261156.65 84
515208.93 5260534.13 475
517753.36 5261935.17 311
506974.39 5263118.15 23
510783.17 5260519.25 136
519417.43 5263172.55 95
508068.78 5265520.47 193
523053.46 5266153.89 20
511487.92 5258992.51 260
516538.04 5261827.48 567
506593.53 5266773.26 333
520399.21 5260001.69 26
509001.36 5265283.74 68
520594.38 5264403.73 14
513575.45 5265319.03 132
508745.62 5263894.87 1
516871.18 5266819.22 53
508169.98 5267277.33 547
508973.03 5265377.29 99
510913.82 5261397.25 84
518674.63 5264727.31 114
514183.08 5264846.61 357
518473.36 5261221.67 259
523238.42 5265903.07 38
517699.07 5263376.25 306
511314.48 5260589.66 108
516569.08 5266537.19 103
512917.68 5259424.25 348
505898.58 5264214.39 20
514600.72 5259004.10 185
507206.16 5260629.95 288
522146.48 5267102.54 22
518065.94 5267755.30 0
510146.49 5258488.76 233
512824.23 5263266.84 391
515727.80 5264591.55 490
510814.72 5262689.97 93
508939.07 5263439.59 0
515967.83 5259439.95 389
505992.86 5265689.87 253
516336.43 5258383.09 388
511856.47 5268058.79 249
509270.26 5260338.83 125
518978.82 5268183.92 28
521213.94 5266316.93 0
520305.92 5259783.97 49
522648.36 5259893.03 0
512205.86 5262272.76 246
517659.39 5258946.46 267
516392.78 5265646.04 308
520794.20 5260167.55 8
505026.30 5268013.06 127
516538.35 5268376.06 0
518786.45 5263462.14 92
506151.05 5265106.70 69
517414.06 5263765.35 299
516610.78 5264306.76 338
522926.89 5267846.58 91
518480.11 5261100.57 217
513080.25 5258915.36 418
517870.47 5259320.60 160
517264.40 5266089.25 135
513681.10 5267963.66 34
511765.81 5265997.45 0
519066.47 5265688.91 54
511393.11 5259203.28 208
507315.33 5262425.92 98
511992.12 5262385.12 200
516189.78 5268132.26 0
516440.41 5263077.81 563
517567.21 5265233.79 227
514403.73 5265446.15 367
521807.51 5264355.98 16
507738.99 5260982.75 295
516749.99 5262726.31 415
522635.84 5262919.31 0
518033.50 5258596.66 276
520702.60 5265768.09 0
508971.84 5260312.62 113
511205.34 5265910.74 28
522080.90 5264351.37 43
516152.64 5260091.28 425
514463.55 5260057.91 209
511193.40 5266374.52 68
508247.76 5261479.48 122
510262.84 5261052.44 125
518623.82 5267976.99 0
509907.31 5262489.01 53
520804.73 5259421.54 30
521448.81 5267492.87 8
515019.36 5267541.11 0
519271.46 5259780.59 102
505264.79 5262479.16 19
505946.93 5267034.64 161
523043.67 5266256.36 20
506086.96 5266817.49 254
521633.74 5264721.12 11
506550.72 5260524.61 236
510108.67 5258346.60 252
507897.10 5261693.15 140
522045.35 5266607.08 45
505264.55 5264185.80 0
509243.35 5263857.06 0
518180.82 5268047.41 0
512597.41 5259006.71 349
513919.66 5265998.68 222
521353.60 5266591.27 0
521367.99 5263623.25 0
510472.64 5261464.25 67
508672.69 5261005.95 246
508074.92 5263051.79 13
521700.02 5260443.91 0
517444.23 5264500.64 185
516767.75 5267251.77 50
519530.78 5265358.50 18
511772.28 5263851.19 275
506163.15 5259913.67 322
517467.59 5260677.03 388
506119.93 5264066.23 6
514282.67 5267943.63 0
506759.28 5264999.53 143
520831.51 5267309.44 26
514475.09 5266780.11 55
505972.43 5258893.93 191
514751.47 5260676.28 288
521719.82 5267070.83 31
514991.56 5268233.74 0
506492.39 5266512.30 269
517571.93 5261263.28 417
507684.67 5267939.95 483
506961.73 5262379.24 65
522083.18 5260687.04 0
511412.57 5266645.54 134
507937.67 5263564.86 8
522817.57 5268123.30 170
517634.60 5262322.83 222
517958.09 5261569.37 245
505067.53 5263589.85 28
519299.91 5265355.78 31
506187.72 5262273.73 164
509698.10 5261840.71 34
511946.27 5259831.26 160
522743.60 5261258.47 0
518746.49 5267606.46 0
505726.13 5264349.68 25
508033.93 5266564.90 397
513245.19 5259026.99 452
523021.09 5267244.23 33
506080.03 5266560.05 231
510736.39 5262924.08 127
509886.05 5264184.07 9
507355.94 5263636.60 4
519777.10 5263774.82 83
520680.13 5258286.13 65
522471.87 5266157.26 7
505725.41 5266974.73 136
521635.23 5267332.25 10
507587.78 5260433.88 351
514714.72 5263537.57 603
519869.66 5266426.47 0
520310.02 5268376.99 34
520977.64 5259265.70 38
521483.86 5263277.56 0
522894.46 5262989.33 0
517622.07 5262065.98 274
506493.78 5263865.63 19
505081.95 5265088.96 78
516794.85 5267474.51 41
511033.13 5260149.91 185
505035.56 5263019.20 39
514595.67 5265305.66 382
512543.50 5265810.30 80
518457.10 5267524.19 0
505535.34 5265716.22 345
521869.91 5260661.49 0
515030.25 5260202.22 369
517277.37 5263571.80 358
507650.42 5260957.97 311
521271.91 5261441.75 16
516146.11 5263230.94 672
512526.05 5261055.94 86
517620.03 5265495.23 196
512795.65 5259973.74 214
519864.15 5264655.00 29
514424.56 5260468.31 238
512196.63 5266600.61 0
516301.08 5259909.82 444
522716.49 5267505.96 32
505047.23 5259630.87 124
517868.16 5267813.57 0
508301.14 5262631.45 64
516155.00 5266596.52 137
514110.86 5259866.51 125
521073.14 5260991.36 2
520204.44 5263597.95 93
515201.47 5259650.94 447
519484.39 5261006.02 83
516420.81 5259602.61 429
518244.34 5258742.63 285
508876.59 5261432.23 180
519538.69 5262484.99 67
517417.86 5260587.62 366
514184.24 5267196.91 0
514935.74 5265234.33 342
511485.07 5265860.12 5
513581.31 5266567.99 8
516728.45 5265137.54 444
511654.38 5259606.68 156
519605.11 5266299.17 0
518207.61 5259654.30 216
517444.89 5266279.99 107
506528.51 5268119.03 192
506282.04 5263823.37 33
509934.30 5258529.93 325
520810.55 5264528.22 15
513752.08 5265794.42 175
520571.23 5265938.18 0
508508.90 5265585.87 123
513103.98 5267852.80 92
522228.82 5263792.28 9
513914.01 5267304.98 0
520536.78 5268026.24 38
511773.36 5266049.12 1
514565.59 5267485.12 0
521984.01 5266204.16 11
507106.20 5262678.91 61
506078.14 5264947.90 93
505251.18 5265768.81 285
522349.41 5260064.61 0
522817.43 5259110.43 0
510264.91 5267512.33 450
510380.02 5268322.89 419
521941.46 5264059.49 13
512699.46 5267238.19 23
508920.10 5260998.14 184
511089.19 5258366.15 399
514908.17 5264900.35 488
518743.14 5267988.54 2
506877.51 5259424.75 339
505995.98 5266138.45 290
523205.42 5260902.47 0
508798.11 5263495.35 0
509397.04 5264574.76 11
520947.74 5267957.34 36
512559.00 5263875.57 364
510208.07 5266412.18 226
509663.95 5267131.73 365
517596.72 5262025.40 269
509246.50 5262019.49 196
521804.90 5267960.78 55
522728.93 5258764.74 0
510235.35 5263401.27 64
516091.33 5264071.31 581
513511.96 5266343.99 46
515651.04 5259365.36 304
522264.61 5261577.99 0
522906.66 5261551.09 0
516847.22 5265451.88 308
514549.30 5258446.03 344
506463.86 5267846.03 221
511349.05 5263092.19 226
515304.26 5259266.35 351
515171.39 5267388.58 24
519035.82 5264542.05 103
507048.56 5268312.55 188
515780.79 5262578.02 778
511869.34 5260455.67 123
509359.83 5265561.87 177
512749.92 5262699.25 312
516629.35 5264829.65 380
521006.89 5267084.96 0
507400.95 5267958.03 419
515463.90 5261698.29 720
512365.11 5266960.06 20
507985.97 5264351.01 77
518581.85 5260825.46 244
518368.27 5265109.56 91
518964.49 5264913.49 66
520885.60 5263941.57 19
523139.38 5265321.30 35
511242.21 5259483.86 309
515546.43 5260408.66 663
514435.50 5266722.37 75
519139.98 5258775.54 317
505325.58 5266586.31 123
516615.56 5267043.43 70
517504.25 5264945.18 235
516689.67 5266327.80 132
509534.31 5260135.79 173
506231.59 5261479.36 161
519389.08 5266469.80 0
507668.31 5258487.51 324
519493.78 5262322.19 79
513312.66 5266138.16 53
522027.80 5258847.87 1
522822.92 5263474.72 6
505603.14 5264319.08 1
507459.65 5259024.07 375
521093.01 5259343.96 17
514611.61 5260627.49 274
522527.63 5264130.42 72
518635.69 5264388.97 138
508101.35 5264424.18 84
510839.18 5262258.90 132
513901.18 5258287.29 522
520425.43 5262046.27 36
511799.40 5259683.14 145
522950.03 5263547.05 6
520111.61 5262792.67 41
510197.48 5268097.64 440
510553.01 5261018.47 110
512987.95 5261195.26 125
520411.59 5267231.30 15
512602.86 5263668.64 432
516872.17 5260301.65 423
515140.43 5261590.85 576
508113.09 5263530.46 7
519324.08 5267246.59 0
505620.31 5263461.96 8
508124.67 5259347.36 235
509173.23 5262494.82 191
510726.02 5261322.96 96
522887.44 5263211.36 0
509231.63 5261355.84 144
521992.10 5259412.05 0
514356.71 5267144.43 0
508728.32 5263115.93 49
506617.41 5266619.45 333
517652.01 5264502.13 146
521753.57 5258793.48 11
518988.65 5262865.21 84
519742.16 5262906.52 56
516085.93 5266769.32 108
517744.14 5263785.90 248
515253.43 5266438.46 107
509887.96 5264189.46 9
505775.22 5259294.50 133
515345.24 5266227.46 162
505614.78 5259518.22 226
506288.05 5264055.17 19
512142.65 5258551.18 284
518918.84 5268016.43 7
520726.53 5260336.65 12
515950.93 5266102.48 261
516846.64 5264550.16 278
509797.79 5264933.80 27
511730.28 5266549.82 31
512825.55 5259440.48 331
522240.06 5264981.15 30
518750.58 5260261.26 276
521371.91 5261373.49 12
505269.15 5267482.98 91
513486.46 5263257.69 515
511364.39 5262200.47 210
516778.95 5260393.78 440
520143.06 5259623.62 46
514434.54 5258496.99 410
513265.03 5264760.28 399
513483.15 5263964.34 557
508940.94 5263043.65 73
515802.37 5268054.27 0
506710.57 5260810.07 260
520445.75 5262755.39 16
520564.23 5265505.23 0
511885.50 5259163.87 211
514180.19 5268046.61 1
511925.11 5261672.29 98
506500.12 5263826.97 23
511077.91 5260714.20 86
522344.76 5263442.22 0
514689.29 5266132.19 208
509374.73 5262881.11 57
511733.51 5264257.31 121
519569.46 5265752.19 5
508214.12 5261527.58 123
511221.89 5259409.57 313
515872.95 5263108.67 741
508173.68 5266315.81 294
512338.40 5261474.48 142
510419.00 5266818.34 257
519739.70 5260587.07 68
508832.80 5259788.06 106
513433.85 5261653.57 214
512726.65 5260159.66 192
517180.47 5263071.52 398
508612.96 5266534.26 317
512136.72 5263719.00 333
519168.41 5264818.10 57
505329.35 5264798.56 69
517984.60 5265353.62 130
507040.69 5259721.73 307
517667.46 5258669.43 237
518751.14 5264393.21 119
509912.43 5266035.33 141
520322.71 5267740.35 33
505119.43 5268267.85 134
513358.62 5259551.02 356
