x y z
627156.203365112 243972.443195367 817.899
633832.581248223 205766.080906965 1308.102
655842.92621161 212078.996615655 697.997
597856.660410089 138622.810438356 1960.189
609220.617404727 202319.615376274 735.703
665112.110886566 206340.050413545 675.401
603238.215552729 165826.11682388 982.706
631373.244310377 178805.396011216 1559.294
645525.078145458 202685.370616241 688.311
686687.070891237 218886.440097428 837.402
632604.596252518 214966.853832502 785.701
687627.646046933 229895.394089834 596.899
622085.704551625 225897.556230788 512.598
590328.445626494 178651.506380453 914.396
642938.22518062 143151.05991852 3197.189
672331.392640777 160532.521347838 2482.405
645387.690166281 251481.948665755 474.704
649059.388587648 153859.689088606 3778.017
613021.864292579 150070.647001031 1767.811
689206.010560318 154543.620339741 1630.989
623269.754623433 203822.995210103 637.399
647914.009272467 154317.464626021 3599.582
615372.019951643 160615.108224504 1065.013
624613.129642871 239369.702765534 443.697
594842.183731164 251841.489075897 772.498
611019.695053383 227753.78574807 436.1
684075.682851313 219929.673167942 943.302
642378.34243835 217321.587816908 595.495
652368.05908534 223509.974571021 503.997
601951.962984483 172054.315364261 1646.998
632237.967794671 192094.741245463 1109.106
642991.44421944 200542.499333418 780.501
681226.086757238 165960.19549392 2049.804
690061.058534947 236711.635978119 440.4
661573.008055533 162590.531460011 2819.921
656451.539707801 154693.1946378 3133.406
635136.255101297 204341.101831296 1177.394
626209.685028229 165077.893778256 1221.008
600787.180119511 167076.605739791 879.91
659000.456163348 194204.18373023 913.99
590899.546546274 214855.569904816 494.303
591931.74150762 164906.343845376 1957.801
646989.515521753 156934.579634216 2899.808
625105.230866171 146942.728827161 2701.398
665855.365303464 143387.149522016 2630.894
664240.144364299 204391.583160397 866.394
680380.396183274 214652.099767981 413
588735.459934218 186563.920443882 718.197
684030.785364491 147075.73727568 2632.206
624836.735499401 200718.642484653 790.2
624751.847634829 163927.461307313 1282.587
642657.592210526 248098.981728291 371.9
603473.860250251 233132.712755752 1185.908
610390.907265761 172985.827597115 644.707
629861.427676639 191934.794358459 983.601
611286.518559215 197325.498492952 668.302
625587.213537019 206404.92660888 798.299
622655.30140185 225009.354066015 481.599
588289.131442065 150686.788242193 1300.906
621481.472009756 155655.682264909 1947.519
618145.162215741 160066.258625498 1078.715
684795.611659711 175423.24904596 1431.103
673863.835621242 167255.709619069 3352.003
670614.42281432 185678.86599645 1231.715
621642.791990357 181715.978934814 871.596
681150.613040932 193989.826335747 1664.965
664022.717358861 236933.434255828 736.102
621312.932373921 219788.630861662 673.303
622462.066637414 231244.854221038 411.803
593546.836251001 216985.864188074 480.701
636247.995036995 164646.983563212 659.11
652445.840236844 225347.986358832 522.799
625885.285651162 198359.679937225 731.196
675232.80674143 177572.628797104 2619.113
687744.030135315 203801.034914275 587.107
675710.376859932 232587.55586339 467.497
656096.815716853 162758.748332355 2857.793
637365.16783459 179299.387365848 1447.004
598200.5863185 186961.915035328 759.201
675815.451466406 196361.233700769 1416.585
674575.876991461 237454.131878759 500.103
634107.778416503 200055.165436402 836.804
605506.459819809 195188.09991732 510.901
686495.946024422 181729.573336808 3027.42
615788.452327465 196448.894744373 918.702
648156.343889036 181940.783894885 2073.809
621375.018529181 185773.237173982 982.405
598344.670907553 186054.302884255 880.205
626028.349647031 221602.784110472 559.299
603811.55379393 197973.67451163 556.202
614116.289357166 139541.411680227 2291.408
602847.756557182 183397.241999348 784.697
638633.366510524 199018.021650694 930.803
611299.958253782 157976.711994203 2092.548
666633.665761434 190318.323953122 1226.115
619500.414851647 216403.994045265 627.898
689020.571939795 228092.04660703 653.897
610893.140090379 172111.532842926 765.203
617721.031282117 163812.797806781 1216.486
668818.583915058 167524.839853936 2754.215
687206.981816512 215038.711031258 1340.602
601839.666207282 146383.341524088 1494.196
602305.480954218 249589.572972246 500.198
592921.124760618 153272.384069382 1129.91
633740.560697207 217741.456050882 750.302
675610.35415941 175617.486606923 1974.48
624869.03170795 232410.349862067 432.896
684553.595831817 232747.20674626 822.196
624131.105368393 237093.551605633 454.399
604035.036968742 149654.42455449 2661.387
613212.634170578 155988.123988081 898.985
633726.096045478 188601.93479582 1085.989
656259.013017117 223460.194969741 672.902
682017.807809072 204046.543495821 434
610886.175883051 225834.454131167 444.898
624878.102161819 231880.155187176 471.402
641782.998967387 185938.928836154 1395.211
636920.907830774 227707.612858476 609.402
595830.686731584 249310.139585034 507.804
601167.045007069 241824.788083888 546.698
624106.613064536 214465.726316987 716.504
596795.086281619 202227.586219944 553.201
640726.423118135 192500.397154713 1415.712
653167.326977926 163918.773158629 3314.628
595419.735990656 236537.696988275 529.396
594021.485323583 226705.27351366 659.001
602129.351716064 187286.141583417 899.899
640117.646210458 211020.172732792 861.7
610036.572503433 168381.353290906 829.512
593906.332817255 144623.039484652 2114.286
674006.792414095 201243.180003961 682.416
675832.816089687 168915.705895217 2227.097
674719.971338841 185574.663335697 1017.823
673771.072789327 167353.216755662 3404.51
615204.999554884 140760.257128408 2580.304
589324.095240798 248849.675266703 800.101
626782.676698438 177814.669963751 1586.713
646462.418843659 216125.505179009 618.802
629671.214791823 249815.047400548 678.897
627726.747070184 207664.829755915 912.702
678730.589471526 185710.499308353 2309.9
622421.777018582 240617.486787112 897.904
672858.353710955 178089.046285661 1549.084
638911.032991324 219692.428245044 724.801
628028.127793523 229868.828927468 507.197
670019.455160791 246695.339395317 557.6
589181.302509025 181045.356655835 868.711
608988.189947495 217025.827838353 490.9
618057.414144186 193076.761879142 831.397
684118.432600931 147830.935754103 2365.187
636734.178680393 230711.159023649 688.897
666365.469109335 240250.114800681 435.099
681781.454116851 160818.406676943 1692.993
642389.83072923 232474.375086946 651.402
642723.814480082 222813.327822166 517.101
655914.018013516 228573.959468632 698.804
592168.916023459 207169.782462971 794.997
593416.931432321 210434.101316026 545.603
628026.643402625 155148.884848837 2698.594
658126.496031932 187529.26617454 875.985
661659.41769825 181415.614310773 2059.28
653271.581959681 194839.827655273 1454.211
600076.166177653 174380.731920803 1437.408
604861.682788613 233864.635026404 1196.205
632792.672164181 248119.864470143 743.005
604373.653924355 247540.453127841 559.704
667237.831598149 243609.852147911 462.698
588680.838867055 161966.335349406 1020.8
652702.090703669 159863.101982697 3951.319
637352.833282059 178625.233641682 1406.993
626778.92522049 162549.109817515 1736.619
624208.633222231 202143.358402375 682.603
655227.197304585 156253.781951417 2808.91
689458.683490808 217415.297740865 1094.901
656116.31142275 215991.354434672 738.905
587619.677752012 235870.935109693 952.607
590613.054472929 163035.212832687 1480.393
646999.198447284 225130.388680246 508.299
666623.100715915 173642.562522648 1544.597
680038.420052425 197426.622095609 1852.004
630832.130755085 140621.607587925 2127.696
611873.509018593 148138.395579077 1468.785
616330.298897508 207019.109425059 592.699
666585.643865155 139403.492311345 3045.202
666142.239415829 250131.64896496 409.502
655570.816556766 236557.118781277 680.901
612937.133009143 222690.314338875 460.901
621963.035350337 247044.732614908 873.295
603659.354723622 243281.226292535 573.702
587826.647843225 151099.303618533 1421.391
626059.715904634 235958.438577387 429.499
598850.463998524 231448.933325225 1148.596
636645.86722645 228364.377165218 658
661595.014973807 141889.900830111 2493.395
657234.457038463 196782.196200905 1428.19
687267.314859866 169957.692357448 1745.489
650348.640130928 165517.867794118 2282.886
613315.860073508 230966.427349088 420.406
689490.721589441 201044.224789183 434
663713.159568864 197456.328270055 459.108
608537.525003689 221070.979369899 468.898
604342.129047874 153123.030292969 2044.596
632114.4102549 234690.698947828 470.601
596936.705516019 236775.414958242 596.596
626496.958053717 199240.449057173 696.102
685439.857327985 183582.317785388 1971.999
622738.340678875 218581.298296379 782.497
665567.925052486 141822.542159439 2543.285
603735.182469038 246341.361177758 698.603
689208.899426749 164673.565352195 1819.219
647777.714676701 219034.602993089 544.799
614895.378927227 250292.575250399 779.8
599142.225521928 181193.797734269 814.298
598154.006815327 221094.17355051 514.695
631192.804809772 224371.699187097 596.503
601426.877774924 226229.931275363 426.895
644136.245980683 144075.69313882 3141.188
664897.454113876 251048.283783851 385.401
657389.839408162 222961.696903569 696.801
588529.246334077 171635.46613661 1231.106
650002.255380837 211144.284685719 634.401
590064.036479747 139462.279337075 1604.711
649776.698363178 233461.158489893 734.998
637569.411127297 225228.662835341 576.099
594697.574859547 195988.060789843 634.7
656526.295433565 171400.357894531 1620.911
653196.015301379 193582.136475237 1477.005
613030.291256058 251654.703984821 743.607
688305.337374147 150887.273188797 2222.897
644694.090113276 190850.103855298 955.893
601496.597633378 162828.087436519 1791.502
610455.737347753 171222.245749645 1487.902
644892.368269021 232451.762697583 692.098
651323.310489006 224297.113625484 513.901
646083.053516616 154529.442854556 3284.299
587496.617294757 207289.303246551 540.599
678629.417086378 144994.015993162 2782.015
595475.465391036 222007.457691206 429.903
621767.446088097 168670.769718264 558
606769.948306743 233848.251662097 1310.195
637708.549865948 155187.572510871 2488.691
632143.455815368 212924.552884277 864.4
604188.946836229 218649.724897593 467.2
598952.428680484 202881.931999595 528.902
639898.131812226 218878.892734409 697.498
683892.938045375 248419.191302771 476.902
593103.698005934 191087.293560708 685.1
656076.862465148 176793.76687324 752.013
643158.614560911 139513.568450071 2156.891
618644.124433641 228311.982183719 460.499
636571.554376958 247058.803895081 466.499
608367.236002431 172112.446761446 1414.504
618910.961426971 234452.485056989 465.894
660418.584591919 158210.919255815 2447.601
643127.234043547 209457.499160763 949.396
647603.129710831 167040.783196037 1759.625
637815.10536111 249769.806859514 597.995
629736.854639044 192325.579655309 1075.104
671922.949055429 171127.509192005 2414.801
654357.832972464 160149.704979755 2669.272
610083.514988091 216801.672363292 495.399
686136.599972886 156032.369330233 2039.399
657666.503039016 152552.13889456 3196.594
640507.296484068 197700.522513878 775.806
610962.900668951 203784.590667306 776.2
619313.301707226 195912.769230432 842.5
648185.691071832 210788.243895973 671.102
610792.908154053 170058.65444736 1447.04
607013.868312604 158736.840508622 2289.692
620771.319738835 153500.708511915 2237.896
620677.200562177 202716.772056513 732.805
663052.675985893 161536.178584313 2392.809
634076.009562294 139615.118114963 3314.794
662397.335621694 186399.228686954 1876.896
598603.894147207 222859.072968772 477.494
626457.776774963 198330.893016318 670.099
605119.835452792 212967.009269565 532.9
588791.675226463 232097.069027356 688.903
607418.386311433 146202.717593669 1490.694
667110.321921621 247799.069921102 356.9
647638.877393956 239887.249670117 491.999
669186.18260047 153783.409755639 1430.709
634975.448824889 231414.0954046 528.396
661428.131028264 205247.547033965 1232.79
615529.626903422 165975.469484742 2184.612
662656.696179404 174801.652321218 1269.881
677099.523559336 198255.944663294 1630.612
619622.38292046 230816.626355429 442.194
596091.498308855 226985.712765727 476.907
641066.197826934 180315.416680626 1959.502
651297.025835852 212743.865442505 729.1
629608.757216771 248865.220845967 861.203
659910.749032965 247110.918913901 425.502
643246.55881842 139227.792414499 2117.383
688164.789867274 250931.890507175 429.898
679221.541403421 141911.351420984 2645.21
683884.703284019 252492.480901911 447.803
609248.838874588 247396.103840735 651.407
681442.994367957 141111.547933867 2576.092
645960.025693487 223982.430521456 511.499
676370.85786345 233886.633769879 456.299
659936.848473195 238157.354016555 508.896
605015.114095655 169779.497447565 1790.285
685111.500927267 187169.372638436 2174.298
607713.504165591 161809.130339413 1244.485
658796.769955929 157140.145787058 2267.592
669083.189203686 161620.612544179 2519.4
632292.932910571 230240.855193901 523.096
647217.167303808 208779.673567363 624.997
616463.298866436 248279.146433713 878.4
658067.155471058 138633.015504046 2019.786
633408.349149793 247090.358263188 610.706
631104.23533091 166449.407411145 899.489
689160.30691672 175528.436176676 1500.597
677801.905721309 185981.98373884 2132.882
665456.292975739 247599.473263888 380.399
592833.671224383 181525.354521249 939.711
618972.839979075 252290.080881751 529.005
607106.684254532 145287.172280043 1605.084
623891.871675263 152398.277330091 2431.597
647542.182666935 202796.811838733 830.501
675939.13275177 175183.991615735 1934.014
677937.106412384 225599.549882407 413.001
638672.441967286 157164.917083141 1540.594
612117.045381729 149188.947808753 1659.591
649288.03976873 137711.951512654 1839.713
623726.763930584 137888.151676574 1703.595
663612.769248475 199329.89524234 459.813
616256.800520024 165417.548812814 1944.7
619297.891145731 188556.455785718 908.697
681343.551924599 205761.917245775 876.093
641005.763671158 206527.421437478 1122.206
656160.883703448 211539.885505957 696.903
659637.718807426 196702.10849462 1340.41
600851.751748806 249876.042403688 420.299
661370.839527314 175035.743295342 1578.201
676329.358004747 181885.81540262 2804.492
626580.842143959 170927.915221306 1056.712
626899.606651033 240248.622607432 435
662132.340888783 215333.736268734 508.702
617050.457533781 217278.731810192 525.002
608662.589577707 148784.117943089 1530.198
625178.70171887 165167.969912771 1359.014
609028.960811348 154874.707957391 2233.706
614904.018847834 158068.341719917 864.565
661691.979203946 239956.368695312 552.603
660814.010760647 232861.335048981 457.802
672641.478392943 145842.244067436 2511.496
665545.683870767 220125.642155505 518.303
630553.64264496 185366.858086635 871.294
677521.975835806 151835.451704943 2663.803
680521.825411415 203459.903223085 434
629179.123936088 199106.560027557 738.403
609435.504636345 210424.619355815 534.402
646448.724375214 168425.574406432 2244.774
602597.838146742 201754.134835914 556.202
612536.39171342 153153.013628204 1219.995
599134.494069108 150310.292441425 1372.49
642710.013000233 184910.844598802 1358.309
631647.454574983 165913.567983322 1284.183
624256.849272141 241804.923597663 800.399
599383.304366599 234204.856791788 1187.203
629956.79857877 196709.868338136 719.201
638206.969225365 148656.447489717 3471
665378.095678297 246149.480714381 422.299
618672.882498107 141235.155464103 3112.713
688393.773471281 249056.586664254 452.503
630858.669809896 229413.239133119 475.799
641427.829820139 192658.934214385 1369.413
658309.277212144 247920.540569948 467.097
617088.459243216 143596.945018298 2297.792
596021.147188022 178150.596979485 1230.29
643042.129185062 141797.323056246 3338.504
678625.401725901 182155.249094789 1619.986
653236.797762234 213452.298883442 701.893
644101.349607094 152992.625951597 2963.21
676332.177542718 154134.425109516 2566.592
664174.120808284 218188.66287737 499.2
639136.434774925 207734.710141626 1007.004
634735.172419919 228068.562867597 647.101
638538.942508294 203710.957425636 1072.11
591240.289511194 166122.00237128 1772.198
631575.092771541 148660.173553465 3124.297
590637.453258888 190124.295539867 676.003
684126.80258302 171680.800796886 2570.581
664799.333824626 153336.988654291 2419.399
594057.990852362 227954.324275938 879.304
614101.774838923 225339.499169563 480.098
678876.160234559 150478.375903266 2259.195
672053.530438887 209389.981005691 434
656746.797782736 182046.443405617 1247.548
602330.037717258 206319.139300576 562.897
631222.589348683 221636.154055346 688.999
598214.521864245 209713.739673486 525.697
589478.201780739 154940.663354371 1782.689
604439.749096126 216994.979272598 500.402
617817.447197602 237025.852737412 934.702
637316.823271721 171634.753584708 563.996
640299.558912411 141616.909333361 2468.217
671281.063404494 157596.635655696 1768.581
613803.037346473 214190.661259819 583.699
684447.286775993 175120.723924691 1768.595
686596.739745251 213442.559450829 917.195
689350.754568005 217610.110840747 1066.507
642679.548908448 219773.900634562 544.5
689332.731483639 194194.00234904 436.696
669382.404502098 192683.619968546 1551.913
671203.901097746 153355.667304693 1488.103
623300.500751093 142566.181181582 2460.02
618901.363753132 230293.276827535 465.306
673943.268364197 148646.429011684 2529.809
652685.46383191 176465.357130752 586.081
621402.05761475 159917.548496417 927.513
660216.04478788 229476.926307713 560.603
620252.453682046 207488.015528703 755.9
624784.334963207 173321.405510352 1164.587
614741.512734989 210018.793045892 548.397
682706.718828981 225605.815581228 463.895
631355.400632482 218267.872822851 639.7
662088.540685078 218928.577628 570.402
659753.263745545 237104.895750674 475.9
675695.068068231 165904.550456377 3187.193
623086.468502239 168637.143734037 558
610693.678763126 156677.677654234 1983.994
684320.426551383 234410.919187411 628.2
662804.039360781 172477.308234381 1807.798
643137.153854903 217269.362667529 668.807
614422.512555562 227935.658680161 454.802
656732.700874803 214826.059312883 747.594
687001.354083704 145462.947249235 2478.506
625585.888257326 181012.896823034 1114.002
667751.396101089 196452.675268803 1075.208
596770.83172055 225506.568205689 433.301
687889.145706322 161809.680414427 2359.39
594032.413721898 203945.495735815 643.803
663950.356778926 199883.163041077 447.695
599790.565767416 161026.413897307 1840.906
660305.160991075 208614.105214936 787.5
656672.50788284 169683.268571854 2323.29
662361.808549168 176958.359232487 2051.808
684837.407716497 204612.736247581 434
598751.048647567 220434.596233125 518.093
685071.912913011 173576.126761592 2240.016
600276.265157708 175024.125783237 1590.188
680406.703710165 144716.129470107 2524.6
613338.451048454 140980.12980421 2276.599
600892.149399993 151331.357902878 1631.388
622094.782580762 243441.131303802 928.794
594463.941716618 232859.279234103 834.396
609373.318906858 149227.384064137 1358.388
645750.322545875 194333.31565915 1359.209
667394.308712844 150766.653927897 1355.583
658979.643055204 164908.343053199 2268.717
638905.698374872 221290.530220178 647.499
665469.872253479 165021.214080132 1754.508
653431.145796668 192981.298143732 1364.714
640129.511077484 224680.089069538 505.903
623700.661836382 208474.087248729 681.198
679049.269835197 203440.800771138 434
614580.843535287 138721.603388733 2488.711
637474.8971257 202941.776671667 964.595
660735.046724028 178465.789430048 1842.382
632654.789711014 161835.792673934 1980.783
645135.915174792 230523.078334614 715.302
608330.871085945 150894.306701799 1575.382
644103.524101016 174286.342743495 1421.504
631840.193682025 178958.367665502 1537.899
608521.56171611 208357.829280526 575.299
590026.079620453 186465.273518449 752.197
631340.484523605 180473.65257501 1481.999
596347.709750038 247889.165832754 716.597
656827.628206613 162227.718244019 2618.288
686696.002139201 248602.582103048 604.504
598029.531153915 196144.369505455 625.597
683990.73658452 234186.477235268 743.796
682537.892240624 217438.573244667 692.295
677934.498943707 235743.570211869 571.296
647618.01155591 140303.879636001 2045.109
612243.975755674 227900.786898378 437.9
673731.365949417 160821.257088125 2861.109
665316.04233322 223981.468788085 494.699
590220.792841316 233680.208281718 920.095
688521.50558399 230769.394453682 675.598
608810.852381478 205809.739820213 588.602
666635.31153129 183323.434456919 1873.892
665579.794921512 233486.563373425 813.197
605796.468661851 242869.273421009 638.797
661748.40811819 193116.606874854 479.382
643160.325025124 230964.61321963 631.899
689301.455536404 148482.79025204 2002.686
623315.509775435 159658.916850934 1886.614
651909.990787646 224413.069279044 503.997
674374.244955122 190085.035220301 2328.7
662305.142396438 185794.625741226 1609.514
631333.5880041 244951.471076289 641.397
628925.931611633 242629.181239644 531.494
687521.190719909 163299.086785412 2001.4
651062.06303644 148389.081216615 3649.906
655575.94148511 138370.361363126 1870.005
657554.200267249 236362.336982661 539.803
653069.183056429 250536.258142345 374.499
644033.56133639 242536.380145132 443.799
669093.470333934 170768.496651222 2261.111
649864.546033182 201973.464065425 820.692
676906.154531704 204877.978751182 434
656221.609706154 176055.060561842 589.789
600437.643710053 148602.021177021 1588.1
622710.253418437 145489.032971211 2889.52
659651.162487327 252630.769163243 425.197
641195.434473386 183045.885977722 1301.206
624535.602864553 186548.957272146 1100.307
638206.866779802 236101.521767336 434.801
677179.549600511 243035.618855206 533.597
631405.639596757 190632.41900656 1156.994
676967.256803114 179613.116191256 2865.282
594054.081667463 166856.910109233 1773.091
623995.619702582 161134.925533073 1760.003
675014.225288561 210272.614813831 511
680899.615866484 141600.689341165 2530.091
654579.35889466 189689.570913516 757.408
674000.383071116 160152.655429426 2826.191
638237.211123399 161592.136241011 1656.105
689371.483698573 199500.847856217 434
681241.92791276 221345.884065986 458.903
681752.771401287 166132.603184077 2055.915
654807.557864886 237432.787274637 582.297
676795.125137214 171846.483187999 3098.19
600978.358753122 147812.728065352 1661.607
664911.590979503 159028.279452121 2530.314
690161.654474248 240198.89193394 700.702
630024.29042776 220164.435451997 672.898
596581.015718008 202294.472745345 554.299
655846.517806758 235135.229955866 517.3
635213.482649358 238905.837191803 441.803
681664.474922923 188664.094961778 2500.018
625137.825085785 163975.192282816 1358.383
664113.271449086 156557.701084735 2031.599
622005.006794627 186871.146891443 988
668403.514585391 227002.929042057 665.8
610050.806008633 244381.494516265 878.896
653706.566479474 217629.676961072 730.6
642232.234122884 206155.225076566 1053.199
642572.028617434 223811.171299353 516.597
670391.445257665 221746.664599093 511.6
666049.876316424 156834.81656082 2222.602
590710.209412791 215939.024481233 439.7
656555.422417466 241873.256882087 461.3
675455.104624642 153899.511275039 2191.991
599082.554610179 238099.50908301 878.698
672817.201573932 219120.141402192 460.502
596051.653057992 180764.229043373 908.809
638636.535287165 212306.001062966 737.694
678070.178899941 182284.930648742 1604.587
609234.434786901 175225.131039231 715.587
609178.281789016 138075.407051113 2738.086
686368.708752665 207082.930843403 1075.895
637262.649442028 242707.841439435 585.298
647528.986715977 223765.034769738 608.902
640590.54615914 214104.733314568 843.102
623116.713318956 174870.454701999 1240.002
678258.331003993 150564.681049367 2475.915
607053.056636342 186312.566583784 564.802
596880.000119423 187209.885845854 800.205
589155.003996192 219153.762319637 431.196
614033.589739714 247272.904262533 776.6
624582.863464624 219277.720958754 702.103
649977.988325464 229640.115642088 543.302
654817.398065917 230502.204601692 662.602
594224.788677799 223991.680513128 434.504
590544.863602062 219376.105325912 431.903
645488.255928972 140937.157381746 2641.293
591284.401543901 185134.843079657 756.799
593554.354684873 217117.785271113 460.401
645410.122822194 242274.243554264 434.999
626136.431222518 177614.849826775 1371.889
645305.191285003 156374.944604325 3451.017
679630.500698186 219561.172749626 413.001
629837.879001578 158660.435575881 2465.585
653965.002513884 171557.305081322 1887.719
616119.362140757 215550.47991459 579.599
589566.836747236 204631.242000841 628.502
680982.643409241 231040.265390842 557.597
643022.221005788 233235.149355508 630.797
615656.702904212 217232.592358918 526.698
618945.787181812 196337.358037442 934.601
647498.848278137 213070.594632326 614.303
667234.678031413 141932.30147571 3224.313
672222.388327728 210089.233646967 434
594098.223251883 236303.832062602 605.695
654196.453400279 181248.26899488 720.099
591558.865183911 196959.909788752 633.199
676953.1545476 160602.530753947 2416
625568.291618199 229947.04510873 467.102
674959.819104846 170774.409412873 2943.708
635847.814457344 227406.30858246 687.899
616825.44554101 185620.443032782 1102.696
683764.773203892 228888.946201967 479.706
662561.713121516 247250.243296306 542.402
676720.728652478 235388.669115982 529.801
664400.051541436 216308.323448346 468.595
636446.68919251 146947.883390249 3045.895
615003.729688303 154654.539739827 1829.114
587582.355201712 238035.246686399 921.307
604073.890127342 191052.966646811 560.396
655770.260463097 252630.563876744 438.099
610312.253307873 172625.44348139 797.906
678966.61220533 157795.072559364 2338.292
596208.806207475 143074.268121806 1909.2
649619.541775541 242888.685462402 554.401
663114.203842497 225231.031781803 467.704
660440.483715989 237530.926120115 548.698
672913.505083981 159596.70250927 2350.094
669889.293900927 237158.141956948 415.702
680219.402121446 208751.743194683 1347.505
665456.699358945 230545.926814976 783.998
657537.293370752 206790.152687257 882.301
608028.153979988 184545.611671056 635.796
618328.407591135 196175.115614358 932.898
650767.001998609 212382.856545187 714.402
633485.134391821 145195.218547599 2678.69
601923.999370161 252563.881901362 431.895
687405.427019936 180796.417923817 2513.117
673574.461540992 225634.101153796 399.403
642369.494216096 192179.950538765 1204.807
630083.841839151 234234.063154195 470.1
619011.074384073 233337.367968148 482.207
621475.797087223 191045.791148223 1123.399
638210.738301911 166480.897421316 1445.724
666390.73631968 188320.011105182 1208.015
644277.212348832 152044.804318188 2856.913
634969.609753558 220162.132888045 718.5
638311.443924173 194208.724527036 950.492
598007.685159967 201721.94496528 532.001
636703.333903764 228857.685312147 566.301
634377.769132332 203795.754534199 948.402
664524.369554523 150323.186706151 1515.789
675030.096334792 176691.973826294 2201.783
603443.060330208 203780.255868445 643.102
675723.047256379 229047.599913942 421.202
615003.216688795 203650.825269867 676.195
652819.18460181 175434.634913444 1072.609
606451.325143126 211134.122311496 509.801
596342.005912344 181157.93252537 901.294
600468.225706471 150115.234502448 1584.306
640901.636122537 205023.392493627 1104.211
598684.024236763 172980.493272179 1529.101
664233.76306092 145696.592239988 2053.991
634591.64482416 235828.705755475 443.697
651640.900132317 206443.984136854 816.705
626016.126081455 197619.667839006 778.101
603615.702999425 231644.730198841 678.804
624374.622814436 165172.341229893 1256.901
605694.578611547 221794.689676765 487.498
609510.93097278 219014.860678264 481.097
634330.159019293 138920.730862616 3131.099
605423.928282534 159378.816798791 1481.8
661069.876245351 205249.346697354 1161.889
636437.616571177 185457.489355944 1099.696
613034.247120036 165604.416780276 1534.701
647023.089910764 198543.830564115 1313.695
679397.329536243 189881.563166265 2499.42
624383.419617388 193973.864229747 850.223
593566.640093288 176435.22520976 1453.007
592083.360179177 168669.446138116 1441.808
678335.904920856 226775.669863964 416.8
668599.090968583 147995.199162936 2562.496
620108.594394267 149915.730637718 1660.596
590861.267451994 167376.544459468 1703.49
685729.788480924 177164.312715669 2369.8
636223.976949938 206059.456444393 1172.646
668556.841541052 197984.387315339 1880.113
671667.045190444 174585.795953909 2400.102
648578.878515413 217709.880570483 550.995
667703.208088213 208586.574824848 494.501
671590.497635367 143023.234864651 2406.316
594942.841781976 237756.719316264 692.407
647019.779684689 199861.28264816 1182.593
648419.104011702 192262.002090359 1479.1
632524.328971329 159096.894647036 2565.1
615084.48065781 184103.12262763 750.504
653414.901959726 168714.701084407 1946.9
650730.128766872 244015.675784867 429.401
664710.498419754 212218.896370126 479.806
638799.419837586 166359.316897404 1381.676
609775.262946438 217036.618620111 493.401
621336.386419528 159996.131394309 927.513
653599.004527616 223974.847787941 518.401
652692.959314614 224145.588818169 503.997
685099.900893237 250496.20590424 550.601
607146.639773743 192778.736285974 517.598
626801.538812981 214063.880349401 790.002
687676.548539448 151136.512252427 2083.891
635919.0366273 176438.153190783 1606.5
624863.18970674 139705.830717608 2043.383
596514.786277739 212290.085220512 514.202
618134.922370065 161002.844335411 931.902
588545.673953656 160611.172827089 1481.51
650434.236284719 209738.030091744 939.602
638350.719170032 180618.628968076 1295.305
652596.798333851 200973.500216324 1040.008
674642.204030381 184833.426931524 1165.008
621432.331287962 251014.357699866 577.198
605190.064333445 233208.133446004 1220.706
595504.052380767 239745.442126051 872.206
623145.835150757 162794.911162367 1639.294
685219.749338773 163249.353440371 1478.6
690129.802841618 186725.210661467 1433.1
600754.727040655 216000.643284541 489.5
610239.372626907 197588.846677865 638.502
612437.265587821 190167.954470562 741.304
606318.006189448 227692.052912517 424.997
659529.771932673 216132.991057013 552.706
685324.64880555 141963.558375854 2513.803
684142.664024316 206254.624330772 1235.101
648586.793987677 204221.528954337 882.895
680222.201213176 175104.320644153 2856.214
641709.872271223 159788.563885142 1929.118
642977.917747651 223710.933144833 530.797
624088.607092239 210520.143966923 780.302
643664.364037933 197497.431151432 759.092
616723.074733848 237221.794476744 1072.506
624840.360281193 165645.516239474 1074.205
678264.497082053 244692.514716989 511.203
649425.384672378 139829.412583254 2360.782
664290.065360503 241637.063833379 536.297
625952.374834713 207446.131375454 756.905
611596.790695242 211802.429818314 528.999
606241.660383127 200369.130572785 562.902
667534.235092989 166767.971750086 2227.514
639098.88400182 139169.129276075 3250.015
597057.454998836 245281.743119402 433.203
676291.315418961 203681.697519884 434
685452.547315836 204890.746337019 434
628333.386030895 208945.666333839 880.994
680606.192433544 143861.383231875 2437.396
590356.832336522 216549.588784419 434.502
623126.001101091 190786.942812573 849.805
685332.262359031 230283.391580409 566.301
619154.227923204 187066.131795241 1065.104
657394.820325466 173550.106504313 834.207
588774.284051843 235456.454035954 1111.799
590922.565135016 162539.774122659 1674.508
601120.029403009 248779.215132765 699.797
600933.372013316 248268.700084044 686.699
625433.708817391 189935.194928608 786.709
589255.668611802 157279.348340662 1566.404
670054.762711135 173524.063003071 2400.592
621988.049997037 219182.559694608 721.702
672059.695489863 181909.636322815 2185.512
671319.25506461 190753.870562626 584.198
601169.142003455 151446.854083175 1836.292
650972.230625281 221759.084466215 549.503
604181.568650421 201237.053710862 545.198
620194.764732647 170597.273144914 558
670008.432168617 202046.448697698 447.893
606910.31813751 181555.117541642 566.192
636788.311316288 249387.757440943 677.905
639878.253772518 165143.185711761 750.308
614771.825345762 220699.601930638 520.898
678857.71869423 215857.033142299 413
669254.310948474 186309.143634615 1813.509
656762.559744889 202258.924345602 1754.402
682802.015903879 251467.043204196 451.699
615978.479709003 232794.834485433 437.601
633290.383975759 202805.071095923 1083.898
607923.566959218 248910.824224834 447.005
593768.086755464 161150.762994105 1236.304
656436.460512302 140622.862022535 1402.896
595533.658881475 152729.760879163 1161.505
621113.471731557 218028.922683332 701.31
601438.809921393 252148.105097775 546.896
589138.193648013 203963.676448231 585.804
594888.439768646 228047.385048573 687.496
600377.605234381 220653.761619367 554.196
673285.836747409 236602.230314946 410.602
648177.272760429 146846.008221532 2490.208
673142.944572235 236325.213415557 408.003
604517.277955385 209358.334619175 540.7
635367.93566294 199773.557284905 970.102
599868.4016428 172866.356381329 1840.89
631958.003375867 198777.648886028 815.797
624229.532393199 248261.440388656 619.197
671261.3603178 162655.042816803 2984.779
609804.871833708 142767.303046395 1966.986
663024.400090291 220307.250530059 553.198
604529.817996285 250974.421343427 404.397
634266.263784077 150535.004266521 2060.916
602133.300078027 184350.962076211 787.398
683737.916207531 207158.905877074 959.603
601435.993617102 183002.532161481 972.799
643413.115279586 142894.753124262 3579.507
589727.256513542 147760.951815424 1586.801
684083.204721868 233577.077055854 861.101
627632.0036697 170904.527942082 772.688
637062.851863301 184376.93611814 962.594
611578.728932975 146101.947242882 2640.105
613963.407794961 222267.660150678 460.998
689593.321402741 182935.429110322 2429.689
664116.527962279 215372.5818173 453.5
601528.94679757 245007.62481355 558.096
646788.619058322 202821.203033489 827.805
591533.71137176 249239.568204154 604.997
593036.372558424 174070.697237273 1032.492
621912.558913578 171814.695469259 558
648543.649544706 184953.782311589 1485.505
685474.634363597 141742.644143499 2488.98
690154.152828318 171037.773460207 2026.606
598502.488933151 199790.015572748 557.801
589783.895449037 234383.379350652 868.802
608041.536788034 241372.075414703 1074.402
602557.410361711 221579.53678738 570.602
645950.256272782 150149.979062407 2722.786
628152.890040025 169133.412254016 558
646917.403382308 226064.343587825 518.599
663751.218356347 147374.298966421 1588.116
637367.781470935 213297.279987108 806.994
649325.167697445 165108.982804616 1427.886
621880.332294235 137646.940111098 2431.712
672671.948770512 214385.980505603 582.791
655070.763891113 174518.25424908 1045.152
649761.411537687 205080.939149804 986.591
667351.897824763 175197.568938029 1098.184
674031.761435603 196183.016881126 1034.591
589743.825278618 185921.316017383 770.605
644471.304958094 152376.214122154 2860.784
657096.806159256 235191.172205941 551.704
609041.704442026 169789.321907443 1593.388
613517.657826595 143243.089479311 2258.792
662899.684739951 170710.33175732 1480.287
685400.272433439 174937.027126188 1333.993
686608.207786124 148053.469970154 2310.013
644456.503384726 182206.343968998 2032.804
676317.99646764 153528.066946767 2746.598
591235.06036445 209925.669467977 559.199
606398.775627841 240598.365913983 1095.798
595474.874603031 246701.74836534 465.398
650957.173803309 231291.489044598 719.599
626669.478770309 231294.876643849 458.396
655578.37010513 234786.552843096 517.599
672309.621088963 222998.319773016 433.702
591092.878919631 171134.676155556 1404.405
648271.473820645 162537.181147536 2488.509
652746.881603992 199157.350225879 1238.707
655801.59173302 240186.618925513 601.799
686829.928491925 229795.552779376 640.404
637992.160009408 140268.59393712 3345.191
675035.817854813 251256.632295122 417.001
604735.446871152 218450.656298913 466.001
648466.006205577 229304.543832395 485.502
601891.449902318 203243.054098155 540.297
628607.669379563 215502.738753187 718.304
661013.859883686 221585.132810311 642.204
621927.941597901 201402.472638134 839.197
676750.165736739 233846.188446898 471.303
634633.919248159 152687.437168362 1826.712
665212.409693488 213506.609992939 439.606
629825.800989703 248890.037302159 880.403
614611.010739655 215770.134447205 606.901
596919.645710587 185843.116932755 721.8
632824.30044667 150973.438157123 1924.789
687111.9915678 171714.507962581 1608.507
638287.98393592 238208.411721337 435.799
592949.513848752 192708.221995233 630.003
666244.788864858 155826.238509721 2483.287
613281.295865655 183427.530704533 775.004
622209.131344388 192153.934269318 955.092
634368.261590738 228167.721427807 633.598
619185.886932487 171418.472379399 558.01
678089.481934382 223810.290173769 413.001
632054.566422767 222962.264501977 684.298
620776.773496644 226975.216743351 477.998
624544.648352142 186955.999079549 1123.5
631823.074699225 176838.736998723 1145.89
670213.150967379 143314.767245071 2748.89
662889.04511237 146521.396040686 1423.01
667429.74990137 214360.453280446 461.601
590584.558393215 137864.820201976 1730.79
589754.103793063 144699.088115566 1229.896
587686.438468674 147007.246019958 1035.798
645849.792321695 167705.171870805 2109.824
633587.35055006 140073.662266622 3473.703
642436.070861553 204735.036850957 910.51
649319.665565335 225682.849229197 503.902
682834.875167487 210148.537639724 836.89
625295.401082132 166476.794958642 751.09
686828.240251541 243493.488241515 536.299
649308.676703139 185297.928975643 1578.492
683469.275804822 191238.598194712 2566.394
667910.443307222 139122.149963305 2709.016
668174.969903623 143260.498759016 2976.718
658005.309909722 231424.886058216 638.102
677372.426865969 172779.901298009 3255.179
631677.069037198 248057.727363805 719.201
625913.576467175 193797.320607109 716.39
678570.566589771 186383.164196455 2134.307
633026.692090838 193481.962708534 1132.198
678636.690899193 137806.368118857 2743.581
606265.186427809 154366.367175387 1908.085
650436.238021561 240884.606602569 489.497
589962.345555518 234125.898268144 826.708
608577.656649543 238601.998911473 1186.398
655310.880568532 244909.571997916 445.003
632442.513489583 219852.371628278 665.799
669042.498454145 205009.157076089 434
592084.21284783 207305.319542101 777.503
588487.238248185 168457.36265157 1069.112
666585.158710589 141929.731347941 3182.096
635662.148644727 161070.033600374 942.286
651870.728946377 173830.449503444 2094.699
597051.162707964 161203.150283997 1474.711
685878.688222985 181072.416464469 2487.689
595477.141323013 219970.402284881 488.606
673697.705692588 229946.583732046 391.003
676537.92619517 163528.932956252 3256.897
601113.684475341 216082.997134047 482.602
651256.705961953 173748.357632089 1823.087
678396.770213522 248289.239023613 446.7
665598.739363318 196047.358154336 615.31
645535.212220054 138103.688284528 1949.878
668608.508750402 250798.63890847 697.598
627439.879507794 238199.994418213 467.404
654235.787471262 149768.695130031 2559.312
627920.140776482 228178.685801486 504.4
655177.994507883 218025.988719035 619.805
683422.775968879 181305.177195701 2890.71
587311.826320024 234433.589188387 1252.194
642455.975254096 149019.020920607 2927.22
644705.817384141 159949.117825603 2674.086
649482.099549124 228767.201000135 489.9
672651.85861405 178820.311219845 1974.708
619796.532701895 164029.160108441 744.609
652847.10562676 164441.254707161 3377.883
629959.829268181 159498.047879966 2535.405
607502.850846067 236777.372815682 720.697
638877.371412444 154651.959077232 3539.999
654815.482015181 205795.091651978 787.591
623766.932153171 162367.950240055 1630.497
596162.360140878 194701.979879446 736.003
684727.9312603 233193.605791879 744.598
637527.169021538 230303.771929741 629.598
635488.119023426 165563.776737221 1220.005
616138.671632375 225335.724170633 506.302
684298.797374162 179504.47840082 2716.405
649186.472610746 203434.894001952 961.789
619123.305754752 209599.183130774 626.299
652010.518178965 231127.337098161 766.401
617320.002143607 147900.937971523 1187.205
646806.021291012 201026.016391047 1016.298
632079.02815112 250178.649272536 721.196
666320.412695803 161844.248963158 1638.218
646614.553994093 151210.950789206 2815.587
674804.714626538 202892.382673676 462.701
649608.069744598 143195.124832762 2286.113
682193.71790273 139085.423513054 1968.382
684516.446458091 223295.441374231 754.701
644567.610397134 221952.057917436 519.402
612088.428383125 157448.397153517 1564.612
631306.383247947 196946.940818408 800.703
594082.015979732 242660.337987777 488.504
589874.91037225 208084.501460597 616.498
621359.354702084 179883.276748948 1040.086
645391.395145296 186574.091818784 1320.6
589143.602722496 218940.86897223 432.399
621837.949768861 189491.364130328 860.003
589717.599577839 183735.97995549 844.196
665846.385921113 147150.40137353 2041.515
636826.352046256 147517.569256923 3143.922
616783.826209218 174286.776060093 558.01
664701.550697742 177570.998840094 1658.517
661012.263514078 245944.144653341 418.397
618649.489288401 230419.169947084 474.704
623932.29884331 230124.612373299 468.998
656893.006977284 151313.492466973 3202.193
656081.988973584 226550.24731641 791.001
610705.408963497 151245.91406331 1217.192
588502.529165619 229662.549928762 1291.594
601219.146281204 147091.973984516 1557.803
629407.525849763 252280.836981083 583.706
640740.296660587 192978.145893501 1494.304
635480.782176071 148336.720863045 3322.604
666056.890593324 161543.385640537 1879.915
671825.686476066 234390.684720046 385.204
667296.335156237 172782.638811842 2250.291
674059.931763766 210279.202237474 487.506
629936.682852805 195627.22176123 883.996
639063.572392687 214567.595672791 691.994
681898.519907772 168214.259096597 2119.814
667369.753003531 192399.353336358 1808.502
675068.326222239 154993.308402019 2715.208
671025.954813968 186842.630084585 1012.699
609761.065624766 157172.740537319 1757.41
679554.58502352 145746.059848344 2468.817
589151.585446846 143982.924737104 1697.092
670602.696265023 152708.602130882 1858.405
667827.125874667 219080.492221801 419.402
613021.312404051 189824.214282351 803.498
664599.917446926 225574.181899195 489.704
647209.809663366 225256.182757389 509.102
665556.369274826 195197.954267563 665.696
665660.321127266 196382.760831701 615.789
630875.179051218 226407.484607328 538.498
643402.117816295 224838.53537504 499.198
639949.819318402 184598.121189064 1609.408
634850.76726234 179275.607880568 1607.808
676572.500474108 209815.65496877 572.897
636563.992441005 151931.420752237 2021.315
661214.614009588 176892.356559507 1913.184
590720.391344237 192075.976107161 644.702
670553.69941405 241782.789197834 379.899
676382.327729514 247929.961468996 608.903
593292.827016848 151126.462694945 1591.088
680491.979436858 230071.436977164 530.195
659372.812102302 247146.904470392 431.403
667740.953841209 187096.920974518 2141.385
673037.207877413 227101.211141132 396.102
640492.626560857 223682.99337279 593.402
655940.966428524 231644.659916152 608.603
587810.482935297 150623.0559574 1344.61
631143.648798485 139992.935638417 2659.02
644694.387573494 181157.093652006 1540.789
663198.414154172 246461.505628754 481.797
597906.53319347 160319.685643512 1850.012
612548.248388232 147405.099602377 1997.494
596962.391446507 176412.00156045 1448.706
665121.116800059 246147.447854249 419.497
633377.174656739 222943.227105426 672.499
613687.717245372 149324.665173247 1994.396
663670.227530752 196889.162381885 458.996
680931.346379933 172314.735912039 2693.893
594132.019196959 190819.561364494 663.695
623764.257836601 172617.345348359 817.604
616949.477718732 235194.28861225 602.195
598191.941809822 161610.299486435 1526.198
588011.692205741 215561.856524303 438.601
600698.310379181 203363.393141038 521.099
609279.228323371 153127.042782896 1649.3
591563.867820753 174310.243685526 1117.707
668637.059486265 200135.633896034 691.903
677634.547028501 231361.726984912 444.996
635177.238660698 228060.417906935 644.098
606352.617729043 213444.335835149 530.998
630056.243541517 241268.500025035 426.803
588229.509339848 182779.187156415 784.996
620054.673666354 192985.678139803 816.209
682110.402199195 137889.050531515 2167.292
675710.767993801 184067.451506912 1307.091
629636.381503244 240070.080637973 431.803
591736.717716441 199934.089679462 598.7
617431.874213294 192466.510397834 902.002
656900.110295271 248370.190639266 435
661644.248039473 205051.735373032 1311.103
620872.618435666 214264.758188284 851.603
627507.65839043 198973.205210115 740.796
659522.534815829 176135.774266724 1304.792
654324.313629504 205384.222876637 799.004
617387.53517394 140250.999250601 3027.286
645388.047958535 162538.522775378 1078.422
644941.038420763 179918.73670755 1211.499
592960.691972874 186633.19674381 790.703
660595.606181405 165747.888592601 1998.309
644002.354662518 143536.51447807 3469.899
632066.637065805 145220.396850126 2477.014
673080.191542106 244937.8583036 665.103
606747.258222462 213847.396886119 509.498
673334.676411361 193587.394082704 1193.094
670759.189374434 153554.054379073 1399.718
620580.143833903 188341.160470776 975.208
621737.757289404 147429.701799731 2853.595
648740.101711772 226139.028661641 508.701
630847.341887178 172620.31118544 704.605
646322.686893551 201987.465120706 883.407
684232.659507285 157520.281349197 2213.286
689600.85170786 251382.957122161 434.297
676801.256272212 143271.037596194 2209.879
635701.895499255 227548.308772686 706
676919.17331191 240282.37281719 585.304
660727.933004361 211936.537138516 501.294
689060.891382707 173537.168830611 908.917
649276.282550748 243646.493014256 542.398
646010.279516373 218336.004272993 586.602
590005.09978356 178244.07859642 811.505
657789.421283147 222561.317113593 673.596
634363.170050017 142519.534694164 2209.709
633825.308988156 161065.295644906 1981.711
643222.482608788 157984.744478654 3476.671
620780.272180985 155169.320967155 2232.489
600547.383400163 152153.09379851 1388.807
625930.004670618 150656.791980179 3050.601
683754.400489089 238268.423247573 518.401
604890.278209706 245695.742045555 583.799
611001.528762683 141259.469968418 2688.489
592335.12380791 180952.194512614 1079.191
656662.386253222 238032.7203552 688.797
627016.323252068 236360.624896871 429.799
677264.998117728 239687.667763183 607.003
600556.902216575 151650.923648708 1452.311
622403.263415798 208016.011645332 654.903
662665.854363758 188628.647007388 1396.803
639069.945172739 215628.182006039 751.493
690183.330794893 145488.449233186 2634.286
603321.792102226 251816.097963411 444.097
676441.913684305 172096.709126632 3003.314
630132.151183931 181213.338402066 1089.391
620526.579417054 184046.531489924 856.9
591245.360783632 249791.205205686 703.198
654580.821438381 155344.92519543 2613.507
602274.094997172 208898.492670283 547.4
632594.42336519 197313.855271157 987.603
657937.78044409 214132.440257477 583.696
648988.558561945 242731.457913433 582.604
638502.323408077 229604.685216915 527.897
628700.951013488 179467.674214448 1273.689
598121.162058344 143226.56890951 1781.003
651408.86897703 166453.949555096 2714.123
657050.573693675 252578.336802081 501
642875.55301958 141099.798749071 2759.483
606125.719245517 239569.049310913 808.992
617609.858423606 167143.491396189 890.014
674194.232969938 181530.047991097 2169.383
667223.671962201 178181.406993762 1809.798
631477.501485395 151105.27152054 3099.515
664601.894391221 230041.220178665 692.595
690181.143217875 185398.801107656 906.408
637585.724510414 182820.841725138 1522.706
624346.064506187 145611.846747194 1944
614910.829862317 239543.138181952 495.299
648310.648270717 241218.849541539 512.499
656454.161989877 248837.168419142 486.798
588255.603384341 176597.271168189 850.392
675302.114447416 179857.938270469 2359.41
630675.58489506 223597.568101166 641.802
596090.36206881 150416.756289774 1130.299
604505.848751715 230000.413316133 487.969
662243.443916731 187936.456847092 1672.716
684608.137040459 156854.426806468 2351.808
682972.909312682 231802.283355412 600.096
664386.526946066 232018.251385021 772.097
690158.173284706 213131.515000613 791.506
637788.376984257 230465.509764372 592.298
687783.327826711 150493.864269976 2643.89
656829.887453562 190804.578474829 564.615
601751.061989015 247137.265334121 590.9
637532.603132251 246291.795908314 409.497
